ncols         321
nrows         37
xllcorner     382249.791745
yllcorner     6354284.43109
cellsize      0.99993681000029
NODATA_value  -9999
30.6494 30.3673 30.0635 29.7573 29.4511 29.1449 28.8387 28.6314 28.4626 28.2939 28.1347 28.0166 28.0021 27.9997 27.9997 27.9973 27.9756 27.925 27.8744 27.7345 27.4814 27.221 26.9558 26.7075 26.4953 26.3916 26.3748 26.3338 26.3482 26.6134 26.9196 26.8497 26.7171 26.6134 26.5363 26.3989 26.2542 26.1096 25.9673 25.8299 25.7383 25.6563 25.5767 25.4948 25.4128 25.3308 25.2464 25.1597 25.0729 24.9861 24.8824 24.7811 24.6751 24.569 24.4653 24.3592 24.27 24.1808 24.0265 23.8722 23.7878 23.73 23.7059 23.6842 23.6335 23.5781 23.5226 23.4696 23.4238 23.3611 23.2189 23.0694 23.0453 23.0308 23.0139 23.0115 23.0163 23.0212 23.0284 23.0332 23.0404 23.0477 23.0549 23.0621 23.0525 23.0332 23.0187 23.0091 23.0043 22.997 22.9898 22.9826 22.9778 22.985 23.0043 23.0284 23.0525 23.0742 23.0838 23.0911 23.0911 23.0935 23.0983 23.1007 23.1079 23.1104 23.1128 23.1224 23.1272 23.1513 23.1755 23.202 23.2285 23.2526 23.2815 23.3056 23.3298 23.3563 23.4093 23.4648 23.5178 23.5733 23.6263 23.6793 23.7348 23.7878 23.8433 23.9108 23.9494 23.959 23.9662 23.9711 23.9807 24.0096 24.0313 24.0506 24.0675 24.0747 24.0771 24.082 24.0868 24.2748 24.7739 25.6587 25.7744 25.813 25.854 25.8902 25.9143 25.9408 25.9649 25.989 26.0107 26.0252 26.0372 26.0517 26.0638 26.112 26.1988 26.2856 26.3748 26.4616 26.6689 27.0064 27.3536 27.7008 28.048 28.4265 28.8387 29.2558 29.6705 30.0852 30.3817 30.5457 30.7 30.8543 31.0062 31.1605 31.3148 31.4715 31.6258 31.7825 31.9681 32.1899 32.4142 32.636 32.8602 33.1013 33.3617 33.622 33.8848 34.1476 34.3815 34.584 34.7841 34.9842 35.1843 35.3844 35.5845 35.7846 35.9848 36.1849 36.3898 36.5995 36.8117 37.0239 37.2384 37.4241 37.5808 37.7351 37.8894 38.0437 38.157 38.2317 38.3017 38.3716 38.4439 38.5138 38.5862 38.6585 38.7308 38.8031 38.9261 39.1069 39.2926 39.4806 39.6663 39.8664 40.0809 40.2979 40.5173 40.7343 40.9272 41.0935 41.2599 41.4262 41.5902 41.7348 41.8578 41.9783 42.0989 42.2194 42.3327 42.4364 42.5377 42.6389 42.7426 42.8656 43.0054 43.1501 43.2947 43.4345 43.5599 43.6708 43.7745 43.883 43.9891 44.0734 44.1289 44.1819 44.235 44.2904 44.3218 44.329 44.3338 44.3411 44.3435 44.329 44.288 44.2446 44.2012 44.1602 44.1048 44.0325 43.9601 43.8854 43.8107 43.7263 43.6274 43.5262 43.4249 43.3261 43.2176 43.0994 42.9837 42.8656 42.7474 42.6028 42.4292 42.2508 42.0748 41.8964 41.7035 41.4889 41.2743 41.0598 40.8428 40.6403 40.4474 40.2545 40.0641 39.8712 39.6904 39.5192 39.348 39.1744 39.0032 38.8224 38.6223 38.4222 38.2245 38.0268 37.8002 37.547 37.2915 37.0359 36.7804 36.5803 36.4332 36.2934 36.1511
30.2805 30.1117 29.832 29.5283 29.2197 28.9159 28.6193 28.4433 28.2746 28.1251 28.0238 28.0118 28.007 28.0046 28.0046 27.9829 27.9202 27.8503 27.7152 27.4717 27.2114 26.951 26.6882 26.4953 26.4037 26.3868 26.3748 26.3507 26.2711 26.2711 26.5025 26.6496 26.5435 26.4543 26.3965 26.2663 26.124 25.9794 25.8419 25.7455 25.6635 25.584 25.502 25.42 25.3381 25.2561 25.1765 25.0921 25.0054 24.9041 24.7956 24.6919 24.5883 24.4822 24.3785 24.2748 24.1856 24.0988 23.959 23.8192 23.701 23.6697 23.648 23.6118 23.5588 23.5058 23.4575 23.4117 23.3515 23.2237 23.0838 23.0597 23.0429 23.026 23.0212 23.0284 23.038 23.0429 23.0525 23.0573 23.0646 23.0718 23.0766 23.0694 23.0501 23.0284 23.0139 23.0067 23.0019 22.9946 22.9874 22.9802 22.9898 23.0091 23.0308 23.0549 23.0766 23.1007 23.1055 23.1104 23.1128 23.1176 23.12 23.1224 23.1272 23.1321 23.1345 23.1369 23.161 23.1851 23.2116 23.2357 23.2622 23.2864 23.3153 23.3394 23.3635 23.39 23.4407 23.4985 23.554 23.6094 23.6649 23.7155 23.7734 23.8264 23.8867 23.9349 23.947 23.9566 23.9662 23.9711 23.9759 23.9928 24.0241 24.0482 24.0699 24.0892 24.0964 24.1013 24.1037 24.5039 24.0506 25.6153 25.8468 25.8878 25.9312 25.9649 25.9938 26.0228 26.0493 26.0758 26.0999 26.1144 26.1289 26.1433 26.1578 26.206 26.2856 26.3699 26.4543 26.5411 26.7412 27.0739 27.4211 27.7683 28.1131 28.4916 28.9062 29.3258 29.7453 30.1648 30.4661 30.6349 30.7892 30.9435 31.1002 31.2545 31.4136 31.5727 31.7295 31.8886 32.0742 32.2936 32.513 32.7348 32.9566 33.1953 33.4509 33.7064 33.9644 34.22 34.4514 34.6515 34.8468 35.0445 35.2398 35.4399 35.6448 35.8522 36.0571 36.2644 36.479 36.7008 36.925 37.1468 37.3735 37.5615 37.7158 37.8653 38.0148 38.1642 38.28 38.3619 38.4415 38.5211 38.6006 38.6802 38.7622 38.8441 38.9261 39.0105 39.1431 39.3287 39.5192 39.7097 39.9025 40.105 40.322 40.5414 40.7584 40.9754 41.1707 41.3394 41.5058 41.6722 41.8385 41.988 42.1134 42.2387 42.3641 42.4895 42.6052 42.7113 42.8149 42.9186 43.0247 43.1404 43.2706 43.4032 43.5334 43.6636 43.7817 43.8854 43.9915 44.0927 44.194 44.2784 44.3338 44.3869 44.4447 44.5002 44.5315 44.5412 44.546 44.5532 44.558 44.5436 44.5074 44.4688 44.4327 44.3941 44.3386 44.2687 44.1964 44.1217 44.0493 43.9625 43.8613 43.7552 43.6515 43.5454 43.4321 43.3116 43.1886 43.0681 42.9451 42.7956 42.6196 42.4388 42.2604 42.0772 41.8819 41.6649 41.4479 41.231 41.014 40.8066 40.6113 40.4185 40.2256 40.0327 39.8471 39.6687 39.4903 39.3143 39.1358 38.9526 38.7646 38.5765 38.3885 38.2004 37.9858 37.7447 37.5012 37.2577 37.0142 36.8141 36.6646 36.5152 36.3681
29.9092 29.7525 29.5741 29.2968 28.9906 28.6844 28.4289 28.2553 28.1106 28.0311 28.019 28.0166 28.0142 28.0118 27.9877 27.9226 27.8334 27.6887 27.4525 27.1969 26.9365 26.6785 26.4905 26.4133 26.3965 26.3868 26.3772 26.3627 26.2904 26.2108 26.1988 26.3458 26.3555 26.2904 26.2518 26.1337 25.9914 25.8516 25.7552 25.6732 25.5912 25.5092 25.4273 25.3453 25.2657 25.1838 25.1042 25.0198 24.9186 24.8173 24.7112 24.6076 24.5039 24.4002 24.2965 24.1929 24.1109 24.0265 23.959 23.8963 23.7444 23.6649 23.595 23.5419 23.4937 23.4455 23.3997 23.3418 23.2261 23.1007 23.0694 23.0549 23.038 23.0284 23.038 23.0501 23.0597 23.067 23.0742 23.0814 23.0863 23.0935 23.0887 23.067 23.0453 23.0212 23.0115 23.0043 22.9995 22.9922 22.985 22.9922 23.0115 23.0356 23.0573 23.0814 23.1104 23.1224 23.1272 23.1321 23.1345 23.1393 23.1417 23.1465 23.1489 23.1513 23.1562 23.1513 23.1755 23.202 23.2285 23.2526 23.2767 23.3032 23.3298 23.3539 23.3804 23.4069 23.4648 23.525 23.5853 23.6432 23.701 23.7541 23.8095 23.8626 23.906 23.9277 23.9397 23.9494 23.959 23.9662 23.9759 23.9831 24.0145 24.041 24.0651 24.0868 24.1061 24.1181 24.1688 24.7185 25.3718 25.8299 25.9143 25.9577 26.0011 26.0372 26.071 26.1023 26.1337 26.1674 26.1939 26.2156 26.2373 26.2615 26.2832 26.329 26.4061 26.4857 26.5676 26.6472 26.8377 27.1559 27.491 27.8261 28.1613 28.5326 28.9472 29.3667 29.7887 30.2082 30.5168 30.6952 30.8567 31.0182 31.1822 31.3437 31.5052 31.6668 31.8283 31.9898 32.1755 32.3876 32.6046 32.8192 33.0362 33.2676 33.516 33.7667 34.0174 34.2682 34.4948 34.6949 34.8902 35.0855 35.2808 35.4833 35.6979 35.91 36.1246 36.3392 36.5634 36.7972 37.0311 37.2674 37.5036 37.7013 37.8508 37.9955 38.1401 38.2848 38.4029 38.4945 38.5813 38.6705 38.7573 38.8465 38.9382 39.0322 39.1262 39.2178 39.3577 39.5481 39.7458 39.9435 40.1388 40.3461 40.5631 40.7801 40.9995 41.2189 41.4142 41.5854 41.7517 41.9181 42.0868 42.2387 42.3689 42.4991 42.6293 42.7595 42.88 42.9861 43.0922 43.1983 43.3044 43.4177 43.5358 43.6539 43.7745 43.8926 44.0011 44.1024 44.2012 44.3025 44.4013 44.4809 44.5388 44.5966 44.6521 44.7075 44.7437 44.7533 44.7606 44.7654 44.7702 44.7606 44.7268 44.6931 44.6617 44.6255 44.5749 44.5074 44.4351 44.3628 44.2904 44.2012 44.0951 43.9842 43.8757 43.7673 43.6491 43.5237 43.396 43.2706 43.1428 42.9909 42.8101 42.6269 42.4437 42.2604 42.0603 41.8433 41.6215 41.4021 41.1803 40.973 40.7753 40.58 40.3895 40.1942 40.0038 39.8206 39.6373 39.4517 39.2684 39.0852 38.9068 38.7284 38.55 38.3716 38.1691 37.9424 37.7086 37.4771 37.2457 37.048 36.8913 36.737 36.5827
29.5379 29.3836 29.2269 29.0364 28.7592 28.4578 28.2384 28.0962 28.0407 28.0335 28.0311 28.0263 28.0238 27.9973 27.9274 27.8503 27.6887 27.4332 27.1776 26.9245 26.6641 26.4833 26.4133 26.3989 26.3892 26.3796 26.3675 26.3386 26.2759 26.2084 26.1433 26.124 26.1722 26.1289 26.1047 25.9987 25.8612 25.7624 25.6804 25.5984 25.5165 25.4369 25.3622 25.2826 25.2079 25.1355 25.0608 24.9354 24.8342 24.7377 24.6437 24.5473 24.446 24.3399 24.2387 24.1374 24.0723 24 23.9904 23.9831 23.9614 23.8168 23.648 23.5058 23.4262 23.378 23.3273 23.2261 23.1128 23.0814 23.0646 23.0453 23.038 23.0453 23.0573 23.0718 23.0814 23.0911 23.0983 23.1055 23.1104 23.1055 23.0863 23.0621 23.038 23.0163 23.0091 23.0043 22.997 22.9898 22.997 23.0139 23.0356 23.0597 23.0863 23.12 23.1369 23.1441 23.1489 23.1538 23.1562 23.161 23.1634 23.1682 23.173 23.1755 23.173 23.1706 23.1923 23.2189 23.243 23.2671 23.2912 23.3177 23.3442 23.3707 23.3997 23.4262 23.4841 23.5443 23.6046 23.6673 23.7276 23.7878 23.8409 23.8794 23.8987 23.9132 23.9277 23.9397 23.9494 23.959 23.9687 23.9783 23.9952 24.0313 24.0554 24.0796 24.1037 24.1856 24.4291 24.9403 25.7769 25.9408 25.9818 26.0252 26.0686 26.1096 26.1457 26.1819 26.2181 26.2542 26.288 26.3169 26.3458 26.3772 26.4061 26.4567 26.5267 26.6038 26.6785 26.7533 26.9341 27.2403 27.5634 27.8864 28.2071 28.5735 28.9882 29.4077 29.8296 30.2516 30.565 30.753 30.9218 31.093 31.2641 31.4329 31.5969 31.7608 31.9247 32.0887 32.2743 32.4841 32.6938 32.906 33.1157 33.34 33.5835 33.8294 34.0753 34.3188 34.5406 34.7383 34.9336 35.1265 35.3217 35.5291 35.7485 35.9703 36.1921 36.4163 36.6502 36.8961 37.142 37.3855 37.6362 37.8364 37.9858 38.1257 38.2655 38.4077 38.5283 38.6271 38.7236 38.8176 38.9116 39.0105 39.1166 39.2178 39.3239 39.4276 39.5746 39.7675 39.97 40.175 40.3775 40.5848 40.8042 41.0212 41.2406 41.46 41.6553 41.8289 41.9976 42.1664 42.3352 42.487 42.6245 42.7595 42.8945 43.0295 43.1525 43.261 43.367 43.4779 43.5864 43.6949 43.801 43.9095 44.0156 44.1193 44.2229 44.3194 44.4158 44.5098 44.6038 44.6882 44.7461 44.8015 44.8594 44.9197 44.9534 44.9655 44.9727 44.98 44.9872 44.9775 44.951 44.9221 44.8932 44.8618 44.8136 44.7461 44.6738 44.6014 44.5315 44.4423 44.3314 44.2205 44.1072 43.9939 43.8733 43.7431 43.6105 43.4804 43.3478 43.1935 43.0126 42.827 42.6438 42.4581 42.258 42.041 41.8216 41.6022 41.3828 41.1755 40.9802 40.7897 40.5969 40.404 40.2135 40.0255 39.8374 39.6494 39.4589 39.2757 39.0925 38.9116 38.7332 38.55 38.3523 38.1353 37.9135 37.6893 37.4675 37.2722 37.1083 36.9467 36.7852
29.2004 29.0268 28.8677 28.7086 28.506 28.236 28.0793 28.0504 28.0504 28.0504 28.0455 28.0383 28.0094 27.9371 27.8599 27.7755 27.5007 27.1824 26.9076 26.6496 26.4736 26.4133 26.3989 26.3868 26.3748 26.3627 26.3458 26.2976 26.2373 26.1747 26.1144 26.0493 26.0179 25.9649 25.9553 25.8636 25.7744 25.6997 25.6226 25.5454 25.4707 25.3959 25.3212 25.2464 25.1717 25.097 24.974 24.839 24.7402 24.6461 24.5497 24.4533 24.3592 24.2652 24.1688 24.0771 24.0121 23.9662 23.9687 23.9711 23.9638 23.947 23.8794 23.6384 23.4286 23.3008 23.2164 23.1224 23.0935 23.0718 23.0549 23.0453 23.0549 23.0694 23.079 23.0935 23.1055 23.1128 23.12 23.1296 23.1224 23.1031 23.0814 23.0573 23.0332 23.0139 23.0067 23.0019 22.9946 22.9995 23.0187 23.0404 23.0646 23.0983 23.1321 23.1489 23.1586 23.1682 23.173 23.1755 23.1779 23.1803 23.1851 23.1899 23.1923 23.1923 23.1899 23.1851 23.2068 23.2333 23.2598 23.2839 23.3105 23.3346 23.3611 23.3876 23.4165 23.4455 23.5009 23.5612 23.6239 23.6842 23.7468 23.8047 23.8505 23.865 23.8843 23.9011 23.9156 23.9301 23.9397 23.9494 23.959 23.9952 24.217 24.1663 24.0675 24.1784 24.4701 24.6726 24.8848 25.2609 25.8661 26.0059 26.0517 26.0927 26.1385 26.1795 26.2229 26.2615 26.3048 26.3458 26.3844 26.4182 26.4543 26.4905 26.5291 26.5797 26.6472 26.7195 26.7894 26.8594 27.0305 27.3247 27.6357 27.9467 28.2553 28.6145 29.0268 29.4487 29.8706 30.2949 30.6132 30.8109 30.9893 31.1677 31.3461 31.5197 31.6885 31.8548 32.0212 32.1875 32.3732 32.5781 32.783 32.9904 33.1953 33.4147 33.651 33.8897 34.1283 34.367 34.5864 34.7841 34.9746 35.1674 35.3627 35.5701 35.7991 36.0282 36.262 36.4935 36.737 36.9901 37.2505 37.5085 37.7664 37.9738 38.1184 38.2534 38.3909 38.5259 38.6464 38.7525 38.8538 38.9574 39.0611 39.1696 39.2829 39.3986 39.5144 39.6301 39.7844 39.9869 40.1967 40.4064 40.6162 40.8307 41.0477 41.2647 41.4817 41.7011 41.8988 42.0724 42.2411 42.4123 42.5811 42.7378 42.8776 43.015 43.1501 43.2875 43.4104 43.5189 43.625 43.7311 43.8372 43.9408 44.0373 44.1361 44.235 44.3314 44.4279 44.5243 44.6159 44.7123 44.8064 44.8883 44.9486 45.0113 45.0716 45.1318 45.1728 45.1873 45.1969 45.209 45.2186 45.2138 45.1897 45.1632 45.1343 45.1077 45.0619 44.9944 44.9221 44.8498 44.7774 44.6882 44.5773 44.464 44.3507 44.235 44.112 43.9794 43.842 43.707 43.5696 43.4128 43.232 43.0488 42.8656 42.6847 42.487 42.2749 42.0603 41.8457 41.6312 41.4286 41.2382 41.0501 40.8621 40.6764 40.486 40.2931 40.1026 39.9073 39.7145 39.5216 39.3287 39.1334 38.9382 38.7405 38.5355 38.3234 38.1088 37.8966 37.6845 37.4892 37.3156 37.1492 36.9805
28.94 28.7568 28.5735 28.3879 28.2215 28.0841 28.06 28.0648 28.0672 28.0648 28.0552 28.0166 27.9419 27.8551 27.7707 27.6767 27.3608 26.9968 26.6593 26.4664 26.4085 26.3941 26.3796 26.3651 26.3531 26.3458 26.3097 26.2518 26.1915 26.1289 26.0686 26.0059 25.9408 25.8709 25.813 25.7793 25.7286 25.6587 25.5816 25.5092 25.4345 25.3574 25.2826 25.2103 25.1331 25.0126 24.8776 24.7474 24.6437 24.5473 24.4533 24.3592 24.2628 24.1688 24.0796 24.0072 23.9518 23.9108 23.9325 23.9542 23.9494 23.9373 23.9301 23.8987 23.5058 23.2309 23.1296 23.1031 23.0814 23.0621 23.0525 23.0621 23.0742 23.0887 23.1007 23.1152 23.1296 23.1369 23.1417 23.1393 23.12 23.0983 23.0742 23.0501 23.0284 23.0115 23.0043 22.997 23.0019 23.0212 23.0429 23.0742 23.1079 23.1441 23.161 23.1706 23.1803 23.1899 23.1947 23.1996 23.202 23.2044 23.2068 23.2116 23.2092 23.2068 23.2068 23.2044 23.2237 23.2478 23.2743 23.3008 23.3249 23.3515 23.378 23.4069 23.4334 23.4624 23.5178 23.5781 23.6408 23.7035 23.7637 23.8095 23.8409 23.8553 23.865 23.8843 23.9036 23.9204 23.9301 23.9397 24.0145 24.2507 24.581 24.6968 24.6534 24.8342 25.1138 24.3448 25.4393 25.8468 26.0083 26.0734 26.1168 26.1626 26.206 26.2518 26.2976 26.3434 26.3868 26.4326 26.4784 26.5218 26.5628 26.6062 26.6496 26.7027 26.7677 26.8328 26.9004 26.9654 27.127 27.4066 27.7056 28.0046 28.3035 28.6531 29.063 29.4873 29.9092 30.3335 30.659 30.8663 31.052 31.2376 31.4233 31.6017 31.7729 31.9416 32.1104 32.2816 32.4672 32.6649 32.8674 33.0699 33.27 33.487 33.7161 33.9475 34.179 34.4104 34.6274 34.8227 35.0156 35.2084 35.4013 35.6111 35.8449 36.086 36.3247 36.5658 36.8141 37.0745 37.3397 37.6001 37.8653 38.075 38.2173 38.3499 38.4825 38.6127 38.7356 38.8465 38.9574 39.0659 39.1744 39.2926 39.4203 39.5505 39.6831 39.8157 39.9821 40.1967 40.4185 40.6451 40.8669 41.0887 41.3009 41.5154 41.7276 41.9422 42.1375 42.3135 42.4846 42.6582 42.8318 42.9861 43.1259 43.261 43.396 43.5334 43.6515 43.7552 43.854 43.9529 44.0517 44.1482 44.2422 44.3338 44.4279 44.5219 44.6159 44.7123 44.8088 44.9028 45.0017 45.086 45.1535 45.2186 45.2861 45.3512 45.397 45.4163 45.4308 45.4453 45.4621 45.4597 45.438 45.4115 45.3874 45.3609 45.3151 45.25 45.1777 45.1029 45.0306 44.9414 44.8305 44.7148 44.6014 44.4881 44.3628 44.2229 44.0807 43.9408 43.7986 43.6395 43.4635 43.2802 43.0994 42.9186 42.7257 42.5184 42.3086 42.0989 41.8915 41.6914 41.5058 41.325 41.1393 40.9585 40.7681 40.5728 40.3751 40.175 39.9749 39.7723 39.5626 39.3504 39.1383 38.9285 38.7188 38.5114 38.3065 38.1016 37.8966 37.7038 37.5253 37.3493 37.1733
28.6844 28.4988 28.3228 28.1637 28.0889 28.0745 28.0769 28.0793 28.0817 28.0697 28.0238 27.9443 27.8503 27.7586 27.667 27.5754 27.3608 26.951 26.5194 26.4061 26.3868 26.3724 26.3579 26.3458 26.3362 26.3169 26.2639 26.2036 26.1409 26.083 26.0204 25.9601 25.8878 25.8106 25.7455 25.7214 25.6877 25.6226 25.5454 25.4707 25.3959 25.3212 25.2464 25.1717 25.0536 24.9186 24.786 24.6509 24.5473 24.4533 24.3568 24.2628 24.1712 24.0771 24.0072 23.9494 23.8939 23.8409 23.8361 23.8722 23.9228 23.9253 23.9132 23.7854 23.3515 23.1513 23.1104 23.0911 23.0718 23.0621 23.0694 23.0814 23.0959 23.1079 23.1224 23.1369 23.1513 23.161 23.1562 23.1393 23.1152 23.0935 23.0694 23.0453 23.0212 23.0091 23.0019 23.0067 23.0236 23.0525 23.0838 23.12 23.1562 23.173 23.1827 23.1923 23.202 23.2116 23.2164 23.2213 23.2237 23.2285 23.2309 23.2309 23.2285 23.2237 23.2213 23.2189 23.2381 23.2647 23.2888 23.3153 23.3418 23.3707 23.3997 23.4262 23.4527 23.4816 23.5371 23.5974 23.6601 23.7203 23.7661 23.7999 23.8288 23.8553 23.8409 23.8578 23.8867 23.9084 23.9204 24.0289 24.2483 24.5569 24.8077 24.2869 25.2055 25.584 25.7021 25.4924 25.8781 26.03 26.0879 26.1361 26.1819 26.2277 26.2735 26.3193 26.3699 26.4158 26.464 26.5122 26.5604 26.6086 26.6568 26.7051 26.7533 26.8087 26.8714 26.9365 26.9992 27.0643 27.2186 27.4838 27.7707 28.0576 28.3421 28.6844 29.0943 29.5186 29.943 30.3649 30.6976 30.9121 31.1026 31.2955 31.4859 31.6716 31.8452 32.0164 32.1875 32.3611 32.5468 32.742 32.9422 33.1399 33.34 33.5521 33.7739 34.0006 34.2248 34.449 34.6612 34.8564 35.0517 35.2446 35.4375 35.6496 35.8931 36.1391 36.385 36.6309 36.884 37.1468 37.4096 37.67 37.9328 38.1425 38.2848 38.415 38.5476 38.6778 38.8007 38.914 39.0298 39.1431 39.2588 39.3866 39.5337 39.6831 39.835 39.9869 40.1725 40.4016 40.6427 40.8838 41.1225 41.3515 41.5612 41.7686 41.9759 42.1833 42.3761 42.5546 42.7281 42.9041 43.0777 43.2368 43.3743 43.5069 43.6395 43.7745 43.8902 43.9866 44.0759 44.1675 44.2567 44.3459 44.4375 44.5291 44.6183 44.7099 44.8015 44.9004 44.9992 45.0957 45.1945 45.2837 45.3536 45.426 45.4983 45.5706 45.6237 45.6478 45.6647 45.6839 45.7032 45.7056 45.6864 45.6622 45.6381 45.614 45.5706 45.5031 45.4308 45.3561 45.2813 45.1921 45.0812 44.9679 44.8522 44.7389 44.6111 44.4664 44.3194 44.1723 44.0252 43.8661 43.6901 43.5117 43.3333 43.1525 42.9644 42.7619 42.557 42.3544 42.1495 41.9566 41.7734 41.5974 41.419 41.2382 41.0525 40.85 40.6451 40.4402 40.2352 40.0207 39.7989 39.5698 39.3432 39.1166 38.8996 38.6995 38.5042 38.3089 38.1112 37.9207 37.7351 37.5519 37.3686
28.4337 28.2577 28.1396 28.1082 28.0938 28.0889 28.0914 28.0914 28.0721 28.0094 27.9298 27.8454 27.7586 27.6718 27.5826 27.4959 27.4066 27.0908 26.5966 26.3989 26.3627 26.3507 26.3386 26.329 26.3193 26.2807 26.2181 26.153 26.0927 26.0324 25.9697 25.907 25.8323 25.7648 25.7093 25.6684 25.6443 25.584 25.5092 25.4321 25.3598 25.2826 25.2103 25.0921 24.9595 24.8245 24.6919 24.5569 24.4533 24.3592 24.2628 24.1688 24.0771 24.0072 23.9494 23.8915 23.8385 23.7565 23.6335 23.6432 23.8047 23.8963 23.8144 23.4286 23.1803 23.1224 23.1007 23.0814 23.0718 23.0766 23.0911 23.1031 23.1176 23.1321 23.1441 23.1586 23.1706 23.173 23.1562 23.1321 23.1079 23.0863 23.0621 23.038 23.0163 23.0067 23.0115 23.0308 23.0621 23.0959 23.1296 23.1658 23.1851 23.1972 23.2044 23.214 23.2237 23.2333 23.2381 23.243 23.2454 23.2502 23.2478 23.2454 23.243 23.2406 23.2357 23.2333 23.255 23.2815 23.3056 23.3298 23.3587 23.3876 23.4165 23.4431 23.472 23.5009 23.554 23.6167 23.6769 23.7251 23.7589 23.7878 23.8192 23.8481 23.8433 23.8312 23.8529 23.8843 23.9928 24.229 24.5135 24.7305 24.2676 24.8583 25.6201 25.8154 25.8805 25.948 26.0155 26.0806 26.1409 26.1915 26.2422 26.2904 26.3386 26.3868 26.435 26.4857 26.5339 26.5821 26.6327 26.681 26.734 26.7846 26.8353 26.8931 26.9582 27.0233 27.0908 27.1559 27.3054 27.5561 27.831 28.1034 28.3783 28.711 29.1184 29.5427 29.9671 30.3938 30.7289 30.9531 31.1484 31.3461 31.5438 31.7319 31.9103 32.0839 32.2599 32.4334 32.6191 32.8144 33.0121 33.2098 33.4075 33.6172 33.8318 34.0512 34.2682 34.4876 34.6949 34.8926 35.0855 35.2784 35.4736 35.6906 35.9365 36.1897 36.4452 36.6984 36.9564 37.2167 37.4795 37.7399 38.0003 38.21 38.3523 38.4825 38.6103 38.7405 38.8634 38.984 39.1045 39.2226 39.3432 39.483 39.6446 39.8157 39.9869 40.1581 40.363 40.6089 40.8645 41.1225 41.378 41.6143 41.8216 42.0241 42.2243 42.4244 42.6148 42.7932 42.9692 43.1476 43.3261 43.4852 43.6202 43.7528 43.883 44.0156 44.1289 44.2157 44.2977 44.382 44.464 44.5484 44.6352 44.722 44.8112 44.898 44.9896 45.0884 45.1873 45.2886 45.3898 45.4814 45.5586 45.6357 45.7129 45.79 45.8479 45.8768 45.8985 45.9226 45.9492 45.9516 45.9347 45.913 45.8913 45.8696 45.8262 45.7563 45.6839 45.6092 45.5345 45.4429 45.3344 45.2186 45.1029 44.9896 44.8594 44.7123 44.5605 44.4086 44.2543 44.0951 43.9191 43.7431 43.5647 43.3887 43.2031 43.0054 42.8053 42.6076 42.4075 42.2194 42.0434 41.8698 41.6963 41.5203 41.3322 41.1273 40.9175 40.7054 40.4956 40.2714 40.0351 39.7916 39.5505 39.307 39.0852 38.8923 38.7067 38.5186 38.3306 38.145 37.9545 37.7664 37.5736
28.1998 28.1444 28.1323 28.1203 28.1058 28.1034 28.0962 28.0672 27.9829 27.8937 27.8117 27.7297 27.6477 27.5658 27.4838 27.3994 27.315 27.1993 26.8232 26.4423 26.3434 26.3314 26.3217 26.3145 26.2904 26.2349 26.1698 26.1072 26.0469 25.9842 25.9215 25.8516 25.7793 25.7238 25.6732 25.625 25.6057 25.5454 25.4731 25.3983 25.3212 25.2489 25.1331 24.9981 24.8655 24.7329 24.5979 24.4629 24.3568 24.2628 24.1688 24.0771 24.0072 23.9494 23.8915 23.8361 23.7806 23.6842 23.5564 23.4503 23.525 23.7493 23.5033 23.2092 23.1321 23.1104 23.0887 23.0766 23.0863 23.0983 23.1128 23.1272 23.1393 23.1538 23.1658 23.1779 23.1803 23.1682 23.1465 23.1248 23.1007 23.079 23.0549 23.0332 23.0115 23.0139 23.0404 23.0718 23.1079 23.1441 23.1779 23.1972 23.2068 23.2164 23.2261 23.2357 23.2454 23.2574 23.2598 23.2647 23.2671 23.2647 23.2647 23.2622 23.2598 23.2574 23.255 23.2526 23.2719 23.296 23.3201 23.349 23.378 23.4069 23.4334 23.4624 23.4913 23.5178 23.5733 23.6335 23.6818 23.7179 23.7468 23.7782 23.8071 23.8361 23.8578 23.824 23.8216 23.9494 24.1832 24.4533 24.6485 24.2314 24.7787 25.5671 25.7865 25.8564 25.9239 25.9938 26.0613 26.1289 26.1915 26.247 26.2976 26.3507 26.4037 26.4543 26.5025 26.5532 26.6014 26.652 26.7027 26.7557 26.8111 26.8666 26.9196 26.9799 27.0474 27.1149 27.18 27.2499 27.3922 27.6309 27.8912 28.1516 28.412 28.7375 29.1425 29.5668 29.9936 30.4203 30.7627 30.9917 31.1942 31.3967 31.5993 31.7921 31.973 32.1514 32.3298 32.5058 32.6914 32.8867 33.082 33.2797 33.4774 33.6799 33.8897 34.1018 34.314 34.5261 34.7311 34.9264 35.1216 35.3145 35.5074 35.7292 35.9823 36.2427 36.5055 36.7659 37.0287 37.2867 37.5495 37.8074 38.0702 38.2776 38.4222 38.55 38.6754 38.8031 38.9285 39.0515 39.1768 39.2998 39.4252 39.5746 39.7579 39.9483 40.1388 40.3293 40.5511 40.8139 41.0863 41.3587 41.6336 41.8771 42.082 42.2773 42.4702 42.6655 42.8535 43.0343 43.2127 43.3936 43.572 43.7335 43.8685 43.9987 44.1265 44.2567 44.3652 44.4471 44.5219 44.5966 44.6714 44.7485 44.8329 44.9173 45.0017 45.086 45.1777 45.2765 45.3778 45.479 45.5827 45.6791 45.7611 45.8455 45.9275 46.0094 46.0697 46.1059 46.1348 46.1637 46.1902 46.1999 46.1854 46.1661 46.1444 46.1227 46.0818 46.0118 45.9371 45.8599 45.7828 45.6912 45.5827 45.467 45.3536 45.2403 45.1077 44.9558 44.7991 44.6448 44.4881 44.3266 44.153 43.977 43.801 43.625 43.4442 43.2513 43.056 42.8607 42.6655 42.4798 42.3062 42.1375 41.9687 41.7975 41.6143 41.4094 41.1996 40.9899 40.7801 40.5583 40.3172 40.0713 39.8254 39.5795 39.3577 39.1672 38.984 38.8007 38.6199 38.4319 38.2342 38.034 37.8364
28.1564 28.1492 28.1444 28.1323 28.1203 28.1034 28.048 27.9563 27.8599 27.7731 27.6935 27.614 27.532 27.45 27.3681 27.2861 27.2017 27.1222 26.9654 26.5797 26.3603 26.3145 26.3048 26.2952 26.2494 26.1867 26.1216 26.0589 25.9987 25.9384 25.8709 25.7986 25.7383 25.6877 25.6394 25.5912 25.555 25.5068 25.4369 25.3598 25.2874 25.1717 25.0391 24.9065 24.7691 24.6365 24.5039 24.3689 24.2652 24.1688 24.0747 24.0048 23.947 23.8915 23.8361 23.7782 23.7227 23.6118 23.4792 23.3924 23.3201 23.4093 23.2309 23.1417 23.12 23.0983 23.0838 23.0935 23.1055 23.12 23.1321 23.1465 23.1586 23.1706 23.1827 23.1875 23.1755 23.1562 23.1345 23.1128 23.0911 23.0694 23.0453 23.0236 23.0236 23.0477 23.0814 23.1176 23.1562 23.1899 23.2116 23.2213 23.2309 23.2406 23.2502 23.2574 23.2671 23.2791 23.2815 23.2864 23.2864 23.2815 23.2815 23.2791 23.2767 23.2743 23.2695 23.2671 23.2864 23.3129 23.3418 23.3683 23.3973 23.4262 23.4527 23.4816 23.5106 23.5371 23.5901 23.6408 23.6745 23.7059 23.7348 23.7661 23.7951 23.824 23.8553 23.8385 23.8144 24.041 24.3158 24.5497 24.188 24.6968 25.5117 25.7527 25.8251 25.8974 25.9673 26.0372 26.1072 26.1771 26.2422 26.3 26.3555 26.4133 26.4664 26.5218 26.5725 26.6207 26.6713 26.7195 26.7726 26.8304 26.8883 26.9462 27.004 27.0667 27.1342 27.2041 27.2716 27.3416 27.479 27.7032 27.9515 28.2023 28.4482 28.7616 29.1666 29.5934 30.0201 30.4492 30.794 31.0303 31.24 31.4474 31.6571 31.8548 32.0381 32.2189 32.3997 32.5781 32.7662 32.959 33.1543 33.3496 33.5449 33.745 33.9475 34.1524 34.3598 34.5647 34.7648 34.9601 35.1554 35.3507 35.546 35.7678 36.0257 36.2958 36.5634 36.831 37.0962 37.3566 37.6194 37.8773 38.1377 38.3475 38.4897 38.6151 38.738 38.8634 38.9912 39.1214 39.2492 39.3794 39.512 39.6711 39.8712 40.0809 40.2931 40.5053 40.7439 41.0164 41.3009 41.5854 41.8698 42.1206 42.3207 42.5112 42.6992 42.8873 43.0729 43.2561 43.4394 43.6226 43.8058 43.9674 44.1024 44.2326 44.3579 44.4881 44.5942 44.6689 44.7365 44.804 44.8715 44.9438 45.0234 45.1077 45.1897 45.2717 45.3609 45.4646 45.573 45.6767 45.7852 45.8865 45.9733 46.0601 46.1493 46.2361 46.3036 46.3445 46.3783 46.4096 46.4434 46.4579 46.4434 46.4217 46.4 46.3783 46.3373 46.265 46.1878 46.1107 46.0287 45.9371 45.8262 45.7105 45.5972 45.479 45.3488 45.1969 45.0402 44.8835 44.7268 44.5653 44.3917 44.2157 44.0421 43.8685 43.6877 43.4972 43.3068 43.1139 42.921 42.7378 42.569 42.4027 42.2339 42.0675 41.8891 41.6914 41.4937 41.2936 41.0935 40.879 40.6451 40.4064 40.1677 39.9315 39.7121 39.5192 39.3335 39.1503 38.9647 38.7718 38.5645 38.3523 38.1425
28.154 28.1468 28.142 28.1275 28.1034 28.0287 27.9322 27.8334 27.7394 27.655 27.5754 27.4959 27.4163 27.3343 27.2523 27.1704 27.0884 27.0064 26.9245 26.734 26.4326 26.3097 26.288 26.2615 26.2036 26.1409 26.0734 26.0107 25.9504 25.8878 25.8154 25.7527 25.7021 25.6539 25.6057 25.5575 25.5117 25.4658 25.3983 25.3236 25.2103 25.0801 24.9451 24.8101 24.6775 24.5425 24.4074 24.2748 24.1688 24.0747 24.0072 23.9494 23.8915 23.8336 23.7782 23.7227 23.6552 23.5299 23.4021 23.3201 23.2406 23.1827 23.1513 23.1272 23.1055 23.0935 23.0983 23.1128 23.1248 23.1369 23.1513 23.1634 23.1755 23.1899 23.1923 23.1803 23.161 23.1417 23.12 23.0983 23.0766 23.0549 23.0332 23.0284 23.0501 23.0911 23.1296 23.1658 23.202 23.2237 23.2333 23.243 23.255 23.2622 23.2719 23.2815 23.2912 23.2984 23.3032 23.3032 23.3008 23.2984 23.296 23.2936 23.2912 23.2912 23.2864 23.2839 23.3032 23.3298 23.3587 23.3852 23.4141 23.4431 23.472 23.4985 23.5275 23.5564 23.5998 23.6359 23.6649 23.6938 23.7251 23.7541 23.7854 23.8144 23.8433 23.8602 23.8457 23.959 24.2604 24.0916 24.61 25.4538 25.719 25.7913 25.8636 25.936 26.0083 26.0806 26.153 26.2253 26.2928 26.3531 26.4133 26.4712 26.5315 26.5869 26.6376 26.6906 26.7388 26.7894 26.8449 26.9028 26.963 27.0257 27.086 27.1511 27.221 27.2909 27.3608 27.4308 27.5609 27.7755 28.0142 28.2505 28.4867 28.7929 29.1932 29.6223 30.0514 30.4806 30.8302 31.0737 31.2858 31.5004 31.7126 31.9175 32.1031 32.284 32.4672 32.6504 32.8361 33.0289 33.2218 33.4171 33.6124 33.8077 34.0102 34.2127 34.4152 34.6178 34.8203 35.0204 35.2205 35.4206 35.6207 35.8473 36.1101 36.3826 36.655 36.9298 37.195 37.4482 37.6989 37.9497 38.2004 38.4053 38.5452 38.6681 38.7935 38.914 39.0442 39.1817 39.3239 39.4637 39.606 39.7796 39.9966 40.228 40.4595 40.6933 40.944 41.2189 41.501 41.7831 42.0627 42.3086 42.5087 42.6968 42.8849 43.0705 43.2561 43.4442 43.6322 43.8227 44.0108 44.1795 44.3169 44.4447 44.5749 44.7051 44.8088 44.8811 44.9414 45.0017 45.0643 45.1343 45.2114 45.2934 45.3729 45.4549 45.5465 45.655 45.7683 45.8816 45.9925 46.101 46.1951 46.2843 46.3759 46.4699 46.5422 46.588 46.6266 46.6628 46.7038 46.7182 46.7038 46.6821 46.6604 46.6363 46.5929 46.5181 46.4362 46.3566 46.2722 46.1806 46.0697 45.9516 45.8358 45.7177 45.5875 45.4356 45.2789 45.1246 44.9679 44.8064 44.6352 44.4592 44.2856 44.112 43.9336 43.7456 43.5551 43.367 43.1766 42.9982 42.8294 42.6655 42.5015 42.3352 42.164 41.9759 41.7855 41.595 41.4069 41.202 40.9754 40.7439 40.5149 40.281 40.0665 39.8712 39.6855 39.4999 39.3118 39.1117 38.8948 38.6729 38.4511
28.1516 28.1372 28.1131 28.0552 27.9756 27.8985 27.8093 27.7128 27.6212 27.5368 27.4573 27.3753 27.2957 27.2162 27.1342 27.0522 26.9727 26.8907 26.8087 26.7268 26.5339 26.3579 26.2759 26.2181 26.1554 26.0903 26.0276 25.9649 25.9022 25.8347 25.7696 25.7142 25.666 25.6177 25.5695 25.5213 25.4731 25.4273 25.3622 25.2513 25.1187 24.9861 24.8511 24.716 24.581 24.4484 24.3158 24.1808 24.0771 24.0072 23.9494 23.8939 23.8361 23.7806 23.7227 23.6673 23.5781 23.4455 23.3346 23.2502 23.1899 23.1586 23.1345 23.1104 23.0959 23.1031 23.1176 23.1296 23.1441 23.1562 23.1682 23.1827 23.1947 23.1996 23.1875 23.1682 23.1489 23.1296 23.1079 23.0863 23.0646 23.0429 23.0356 23.0525 23.0838 23.1248 23.1682 23.2092 23.2333 23.2454 23.255 23.2647 23.2767 23.2839 23.2936 23.3032 23.3129 23.3225 23.3201 23.3201 23.3177 23.3177 23.3153 23.3129 23.3081 23.3056 23.3032 23.3032 23.3225 23.3515 23.3804 23.4093 23.4358 23.4648 23.4937 23.5226 23.5492 23.5781 23.607 23.6359 23.6649 23.6938 23.7251 23.7541 23.7854 23.8168 23.8481 23.877 23.8794 23.9036 24.3158 24.6847 25.3863 25.678 25.7503 25.8251 25.8998 25.9721 26.0469 26.1216 26.1988 26.2735 26.3458 26.4109 26.4712 26.5315 26.5942 26.6544 26.7051 26.7557 26.8063 26.857 26.9124 26.9727 27.0354 27.098 27.1607 27.2258 27.2933 27.3657 27.4356 27.5055 27.6333 27.8406 28.0721 28.3035 28.535 28.8339 29.2341 29.6609 30.09 30.5168 30.8712 31.1195 31.3389 31.5559 31.7753 31.9802 32.1682 32.3515 32.5347 32.7155 32.9012 33.094 33.2869 33.4798 33.6751 33.8704 34.0753 34.2826 34.49 34.6949 34.9022 35.112 35.3242 35.5339 35.7437 35.9775 36.2403 36.5127 36.7876 37.06 37.318 37.5591 37.793 38.0268 38.2583 38.4511 38.591 38.7139 38.8369 38.9574 39.0925 39.2419 39.3962 39.5529 39.7097 39.8977 40.134 40.3847 40.6379 40.891 41.1514 41.419 41.6914 41.9615 42.2315 42.4702 42.6703 42.8583 43.044 43.232 43.4225 43.6178 43.8131 44.0108 44.206 44.382 44.5219 44.6545 44.7847 44.9173 45.0209 45.0884 45.1439 45.1993 45.2548 45.3199 45.397 45.4766 45.5586 45.6381 45.7322 45.8455 45.966 46.0842 46.2023 46.318 46.4145 46.5085 46.6049 46.7014 46.7785 46.8291 46.8725 46.9159 46.9617 46.981 46.9666 46.94 46.9183 46.8942 46.8484 46.7713 46.6869 46.6025 46.5181 46.4217 46.3084 46.1927 46.0745 45.9564 45.8262 45.6743 45.52 45.3657 45.209 45.0475 44.8787 44.7051 44.5315 44.3579 44.1795 43.9939 43.8058 43.6202 43.4321 43.2537 43.0898 42.9282 42.7667 42.6052 42.4364 42.258 42.0796 41.8988 41.7204 41.5251 41.3081 41.0839 40.8597 40.6306 40.4185 40.2256 40.0375 39.8471 39.659 39.4541 39.2275 38.9936 38.7573
28.1347 28.0721 27.9901 27.9202 27.8454 27.7635 27.6815 27.5899 27.5007 27.4187 27.3391 27.2572 27.1776 27.098 27.0161 26.9365 26.8545 26.775 26.693 26.6134 26.5315 26.3916 26.2542 26.1722 26.1072 26.0421 25.9794 25.9167 25.8516 25.7865 25.7286 25.6804 25.6322 25.584 25.5358 25.4875 25.4393 25.3911 25.2923 25.1597 25.0246 24.892 24.757 24.6244 24.4894 24.3544 24.2194 24.0868 24.0096 23.9542 23.8987 23.8457 23.7927 23.7372 23.6818 23.6118 23.4937 23.3563 23.2622 23.2044 23.1658 23.1417 23.1176 23.1007 23.1079 23.1224 23.1345 23.1489 23.161 23.1755 23.1875 23.1996 23.2044 23.1947 23.1755 23.1562 23.1369 23.1152 23.0935 23.0718 23.0501 23.0453 23.0597 23.0838 23.1176 23.1586 23.214 23.2502 23.2622 23.2719 23.2815 23.2936 23.3032 23.3129 23.3225 23.3322 23.3394 23.3442 23.3418 23.3394 23.3346 23.3346 23.3322 23.3273 23.3249 23.3225 23.3225 23.3322 23.3587 23.3876 23.4141 23.4455 23.472 23.5009 23.5299 23.5588 23.5853 23.6094 23.6335 23.6601 23.689 23.7155 23.7444 23.7734 23.8047 23.8336 23.865 23.8939 23.9036 24.0506 24.0217 25.068 25.6298 25.7045 25.7793 25.854 25.9312 26.0059 26.0855 26.165 26.2446 26.3265 26.3989 26.4664 26.5291 26.5918 26.6568 26.7171 26.7702 26.8232 26.8738 26.9269 26.9823 27.0426 27.1029 27.1631 27.2234 27.2885 27.3584 27.4283 27.4983 27.5682 27.6935 27.8985 28.1275 28.3566 28.588 28.8846 29.2799 29.7067 30.1334 30.5577 30.9146 31.1701 31.3919 31.6161 31.8379 32.0453 32.2333 32.4166 32.5974 32.7782 32.9639 33.1567 33.3496 33.5425 33.7354 33.9355 34.1428 34.355 34.5671 34.7769 34.9914 35.2133 35.4327 35.6545 35.8739 36.1125 36.3777 36.6478 36.9202 37.1926 37.4458 37.67 37.887 38.1016 38.3185 38.4994 38.6368 38.7597 38.8803 39.0032 39.1383 39.2998 39.471 39.6397 39.8085 40.0158 40.269 40.5414 40.8139 41.0887 41.3563 41.6191 41.8795 42.1399 42.3978 42.6317 42.8318 43.0199 43.2079 43.3936 43.5864 43.789 43.9939 44.1988 44.4037 44.5846 44.7292 44.8618 44.9944 45.127 45.2331 45.2958 45.3464 45.397 45.4477 45.5079 45.5803 45.6622 45.7418 45.8214 45.9178 46.0359 46.1613 46.2867 46.4145 46.5326 46.6363 46.7327 46.8316 46.9328 47.0148 47.0702 47.1209 47.1691 47.2197 47.2438 47.2294 47.2028 47.1763 47.1498 47.1016 47.0268 46.9376 46.8484 46.7616 46.6628 46.5495 46.4313 46.3132 46.1951 46.0649 45.9154 45.7587 45.6044 45.4501 45.291 45.1198 44.9486 44.775 44.6014 44.4254 44.2422 44.0566 43.8709 43.6877 43.5117 43.3502 43.191 43.0319 42.8728 42.7113 42.5425 42.3713 42.2026 42.0338 41.8481 41.636 41.4166 41.1996 40.9826 40.7729 40.58 40.3895 40.1967 40.0086 39.7989 39.565 39.3215 39.078
28.0865 27.978 27.8334 27.7924 27.7514 27.667 27.573 27.4742 27.3849 27.3078 27.2282 27.1487 27.0691 26.9896 26.91 26.8304 26.7509 26.6713 26.5942 26.517 26.4375 26.3434 26.206 26.1192 26.0613 25.9938 25.9312 25.8685 25.8034 25.7455 25.6949 25.6467 25.5984 25.5478 25.4996 25.4586 25.42 25.3549 25.2609 25.1404 25.0054 24.8728 24.7402 24.6076 24.4749 24.3423 24.2097 24.082 23.9879 23.9253 23.8698 23.8144 23.7613 23.7059 23.6384 23.5275 23.3924 23.2815 23.2164 23.1779 23.1465 23.1224 23.1055 23.1128 23.1272 23.1417 23.1538 23.1658 23.1803 23.1923 23.2068 23.2116 23.1996 23.1827 23.1634 23.1417 23.1224 23.1031 23.0814 23.0597 23.0525 23.067 23.0935 23.1176 23.161 23.2189 23.2671 23.2839 23.2912 23.3032 23.3129 23.3225 23.3322 23.3418 23.349 23.3611 23.3635 23.3611 23.3563 23.3539 23.3515 23.3515 23.3466 23.3442 23.3442 23.3442 23.3515 23.3683 23.3949 23.4214 23.4503 23.4792 23.5082 23.5347 23.5636 23.5925 23.6167 23.6384 23.6649 23.6914 23.7179 23.7444 23.771 23.7999 23.8288 23.8553 23.8843 23.9132 23.9928 23.8843 24.393 25.3115 25.6515 25.7286 25.8058 25.8829 25.9601 26.0396 26.1216 26.206 26.2904 26.3772 26.4543 26.5218 26.5869 26.6544 26.7195 26.7798 26.8353 26.8859 26.9413 26.992 27.0474 27.1077 27.168 27.2282 27.2885 27.3536 27.4211 27.491 27.5609 27.6285 27.7514 27.9563 28.183 28.412 28.641 28.9352 29.3282 29.7525 30.1768 30.6011 30.958 31.2183 31.445 31.674 31.9006 32.1128 32.3008 32.4793 32.6601 32.8409 33.0265 33.217 33.4123 33.6052 33.798 34.0006 34.2103 34.4273 34.6443 34.8613 35.0831 35.3097 35.5411 35.7726 36.004 36.25 36.5127 36.7828 37.0552 37.3252 37.5712 37.7809 37.981 38.1787 38.3764 38.5476 38.6826 38.8031 38.9237 39.0466 39.1865 39.3601 39.5433 39.7241 39.9098 40.1292 40.404 40.6981 40.9899 41.284 41.5637 41.8216 42.07 42.3183 42.5666 42.7932 42.9909 43.1814 43.3694 43.5575 43.7528 43.9601 44.1723 44.3845 44.599 44.7871 44.9341 45.0692 45.2042 45.3416 45.4453 45.5055 45.5513 45.5947 45.6381 45.6936 45.7683 45.8455 45.925 46.0046 46.101 46.224 46.359 46.4892 46.6242 46.7496 46.8557 46.9569 47.0606 47.1619 47.2486 47.3089 47.362 47.415 47.468 47.4946 47.4801 47.4536 47.4246 47.3957 47.3475 47.2703 47.1787 47.0871 46.9979 46.8966 46.7833 46.6628 46.5447 46.4241 46.2939 46.1444 45.9877 45.8358 45.6815 45.52 45.3512 45.1777 45.0065 44.8329 44.6593 44.4761 44.2904 44.1072 43.9216 43.7456 43.584 43.4225 43.2634 43.1042 42.9451 42.7812 42.6196 42.4557 42.2942 42.1182 41.9205 41.718 41.513 41.3105 41.1152 40.9248 40.7415 40.5559 40.3727 40.1701 39.9411 39.7024 39.4613
27.8768 27.7635 27.6309 27.5947 27.6285 27.5971 27.5103 27.3874 27.2837 27.2065 27.1366 27.0595 26.9823 26.9004 26.8208 26.7412 26.6617 26.5845 26.5122 26.4375 26.3579 26.2687 26.1361 26.0613 26.0107 25.9456 25.8829 25.8178 25.7576 25.7093 25.6611 25.6105 25.5647 25.5285 25.4972 25.4586 25.3983 25.3115 25.2344 25.1283 24.9981 24.8655 24.7329 24.6003 24.4677 24.3327 24.2049 24.082 23.9638 23.8915 23.8409 23.7878 23.7324 23.6649 23.554 23.4238 23.3008 23.2285 23.1923 23.1586 23.1296 23.1104 23.1176 23.1321 23.1441 23.1586 23.173 23.1851 23.1972 23.2116 23.2164 23.2068 23.1875 23.1682 23.1489 23.1296 23.1104 23.0887 23.067 23.0597 23.0742 23.0983 23.1248 23.1658 23.2285 23.2864 23.3105 23.3153 23.3225 23.3322 23.3418 23.3515 23.3611 23.3683 23.378 23.3828 23.3804 23.378 23.3756 23.3732 23.3707 23.3707 23.3659 23.3635 23.3611 23.3707 23.3876 23.4021 23.4262 23.4551 23.4841 23.5106 23.5395 23.5684 23.5974 23.6239 23.648 23.6697 23.6962 23.7227 23.7493 23.7734 23.8023 23.8288 23.8553 23.8843 23.9108 23.9397 24.1278 24.4677 25.232 25.6009 25.6732 25.7527 25.8299 25.9095 25.989 26.071 26.1578 26.247 26.3362 26.4254 26.5074 26.5797 26.6472 26.7147 26.7798 26.8449 26.9004 26.9534 27.0064 27.0619 27.1173 27.1752 27.2355 27.2933 27.3536 27.4163 27.4838 27.5537 27.6212 27.6911 27.8093 28.0118 28.2408 28.4675 28.6941 28.9858 29.374 29.7983 30.2202 30.6421 31.0038 31.269 31.5004 31.7319 31.9633 32.1779 32.3659 32.5444 32.7252 32.9036 33.0892 33.2797 33.4726 33.6678 33.8607 34.0632 34.2778 34.4996 34.7214 34.9432 35.1699 35.4061 35.6496 35.8907 36.1318 36.385 36.6502 36.9178 37.1878 37.4578 37.6989 37.8942 38.075 38.2559 38.4367 38.5982 38.7284 38.8489 38.9695 39.09 39.2347 39.4179 39.6132 39.8085 40.0086 40.2425 40.5342 40.8452 41.1562 41.4696 41.7589 42.0121 42.2508 42.4895 42.7306 42.9524 43.1525 43.3429 43.5358 43.7287 43.9288 44.1409 44.3628 44.5822 44.8015 44.9944 45.1463 45.2813 45.4187 45.5538 45.6598 45.7201 45.7659 45.8117 45.8575 45.913 45.9853 46.0673 46.1468 46.2264 46.3228 46.4458 46.5784 46.7086 46.8412 46.9642 47.0702 47.1691 47.2703 47.3692 47.4536 47.5138 47.5669 47.6199 47.673 47.6995 47.6874 47.6585 47.6296 47.6006 47.5548 47.4777 47.3861 47.2969 47.2101 47.1112 46.9955 46.8749 46.7544 46.6339 46.5013 46.3542 46.1975 46.0456 45.8913 45.7298 45.561 45.3898 45.2162 45.045 44.8691 44.6858 44.5002 44.3145 44.1265 43.9481 43.7817 43.6178 43.4538 43.2899 43.1308 42.9716 42.8125 42.6582 42.4991 42.3352 42.1567 41.9759 41.7975 41.6167 41.4407 41.2671 41.0935 40.9224 40.7536 40.5655 40.3485 40.1243 39.8977
27.5682 27.4838 27.4091 27.4018 27.45 27.4838 27.4356 27.2982 27.18 27.0932 27.0281 26.963 26.8907 26.8136 26.7316 26.652 26.5725 26.4953 26.4302 26.3555 26.2759 26.1843 26.0638 25.9962 25.9553 25.8974 25.8323 25.7744 25.7214 25.6732 25.6322 25.5984 25.5671 25.5406 25.502 25.4417 25.3598 25.2633 25.1886 25.1042 24.9885 24.8559 24.7233 24.5907 24.4581 24.3279 24.2025 24.0796 23.9566 23.865 23.8071 23.7565 23.6914 23.5805 23.4503 23.3249 23.2454 23.2044 23.173 23.1393 23.1176 23.12 23.1345 23.1489 23.1634 23.1779 23.1899 23.2044 23.2164 23.2237 23.214 23.1947 23.1755 23.1562 23.1369 23.1176 23.0959 23.0766 23.0694 23.0814 23.1055 23.1296 23.1682 23.2333 23.3032 23.337 23.3418 23.3442 23.3515 23.3611 23.3707 23.3804 23.39 23.3973 23.3997 23.3997 23.3997 23.3949 23.3924 23.39 23.3876 23.3852 23.3828 23.3804 23.3924 23.4069 23.4238 23.4382 23.4624 23.4913 23.5202 23.5467 23.5757 23.6022 23.6287 23.6528 23.6769 23.701 23.7251 23.7517 23.7782 23.8047 23.8312 23.8578 23.8843 23.9132 23.947 23.9855 23.9011 24.8824 25.5526 25.6226 25.6949 25.7769 25.8564 25.9384 26.0204 26.1047 26.1939 26.288 26.382 26.476 26.5628 26.6351 26.7051 26.775 26.8449 26.9076 26.9654 27.0209 27.0739 27.1294 27.1848 27.2427 27.3006 27.3608 27.4187 27.4814 27.5489 27.6164 27.6839 27.7538 27.872 28.0697 28.2987 28.5253 28.7519 29.0413 29.427 29.8465 30.266 30.6879 31.0496 31.3196 31.5559 31.7921 32.026 32.243 32.4334 32.6119 32.7903 32.9687 33.1543 33.3472 33.5425 33.7354 33.9306 34.1356 34.3574 34.5864 34.8155 35.0421 35.2759 35.5219 35.7726 36.0209 36.2717 36.5272 36.79 37.0528 37.318 37.5832 37.8171 38.0027 38.1715 38.3378 38.5066 38.6585 38.7863 38.902 39.0201 39.1383 39.2829 39.4734 39.6807 39.8856 40.0954 40.3389 40.6427 40.9682 41.2936 41.6215 41.9205 42.1736 42.4075 42.6438 42.88 43.1042 43.3116 43.5141 43.7142 43.9167 44.1265 44.3459 44.5701 44.7943 45.0185 45.2138 45.3657 45.5007 45.6357 45.7683 45.8768 45.9443 45.9974 46.0504 46.1059 46.1685 46.2457 46.3277 46.4096 46.494 46.588 46.7038 46.8243 46.9449 47.0678 47.1811 47.2776 47.3692 47.4608 47.5524 47.632 47.6898 47.7381 47.7911 47.8393 47.8658 47.8538 47.8273 47.8032 47.7766 47.7332 47.6609 47.5741 47.4897 47.4054 47.3113 47.1956 47.0751 46.9521 46.8316 46.7014 46.5519 46.3976 46.2457 46.0914 45.9323 45.7635 45.5923 45.4187 45.2476 45.0716 44.8883 44.7003 44.5122 44.3266 44.1434 43.9722 43.8058 43.6371 43.4683 43.3068 43.1525 43.003 42.8511 42.7016 42.5473 42.393 42.2363 42.0796 41.9229 41.7662 41.6071 41.4479 41.2912 41.1321 40.9585 40.756 40.5438 40.3341
27.2716 27.2162 27.221 27.2596 27.303 27.344 27.3223 27.1969 27.0547 26.9799 26.91 26.8425 26.7846 26.7195 26.6424 26.5628 26.4833 26.4085 26.3434 26.2759 26.1915 26.0999 25.9938 25.9287 25.895 25.8468 25.7889 25.7407 25.7021 25.6684 25.6394 25.6129 25.5864 25.543 25.4851 25.4056 25.3115 25.2127 25.138 25.0753 24.974 24.8462 24.7136 24.5834 24.4508 24.3255 24.2025 24.0796 23.9566 23.8433 23.771 23.7155 23.6118 23.4792 23.3515 23.2622 23.2164 23.1827 23.1538 23.1296 23.1296 23.1417 23.1562 23.1682 23.1827 23.1947 23.2092 23.2237 23.2285 23.2189 23.202 23.1827 23.161 23.1417 23.1224 23.1031 23.0838 23.0766 23.0887 23.1104 23.1345 23.1706 23.2333 23.3177 23.3635 23.3707 23.3732 23.3732 23.3804 23.39 23.3997 23.4093 23.419 23.4214 23.4214 23.419 23.4141 23.4117 23.4093 23.4069 23.4045 23.4021 23.4021 23.4117 23.4262 23.4407 23.4575 23.472 23.4985 23.525 23.554 23.5829 23.6094 23.6335 23.6601 23.6842 23.7059 23.73 23.7565 23.783 23.8095 23.8361 23.8626 23.8891 23.918 23.9542 23.9904 24.0603 24.3689 25.1621 25.5719 25.6418 25.7142 25.7961 25.8781 25.9601 26.0445 26.1313 26.2253 26.3265 26.4254 26.5242 26.6159 26.693 26.7629 26.8377 26.91 26.9751 27.033 27.0884 27.1414 27.1969 27.2523 27.3078 27.3681 27.4259 27.4838 27.5441 27.6092 27.6791 27.749 27.8213 27.9395 28.1372 28.3638 28.5928 28.8195 29.1064 29.4873 29.9044 30.3215 30.7386 31.1002 31.375 31.6137 31.8524 32.0911 32.3129 32.5034 32.6818 32.8602 33.0386 33.2242 33.4195 33.6172 33.8149 34.0126 34.2224 34.4538 34.6901 34.9264 35.1626 35.4061 35.6569 35.91 36.1656 36.4211 36.6743 36.9323 37.1902 37.4458 37.7013 37.928 38.1064 38.2655 38.4246 38.5837 38.7284 38.8514 38.9647 39.0756 39.1889 39.3335 39.5264 39.741 39.958 40.1725 40.4257 40.7391 41.0742 41.4118 41.7493 42.0579 42.3135 42.5497 42.786 43.0223 43.2513 43.4707 43.6853 43.8999 44.1144 44.3338 44.5605 44.7871 45.0113 45.2403 45.438 45.5875 45.7201 45.8527 45.9829 46.0938 46.1685 46.2312 46.2963 46.3614 46.4313 46.5109 46.5953 46.6797 46.764 46.8581 46.9642 47.0726 47.1835 47.2945 47.3981 47.4849 47.5693 47.6537 47.7381 47.8104 47.8658 47.9117 47.9575 48.0057 48.0298 48.0201 47.9984 47.9743 47.9526 47.9117 47.8441 47.7622 47.6826 47.6031 47.5114 47.3957 47.2728 47.1522 47.0317 46.8991 46.7496 46.5977 46.4434 46.2915 46.1324 45.966 45.7949 45.6237 45.4501 45.2741 45.0909 44.9004 44.7123 44.5243 44.3411 44.1651 43.9939 43.8203 43.6467 43.4828 43.3333 43.191 43.0464 42.9017 42.7619 42.6269 42.4919 42.3593 42.2267 42.0917 41.947 41.8023 41.6577 41.513 41.3515 41.1634 40.9657 40.7705
27.0402 27.0667 27.1053 27.1463 27.1873 27.2162 27.1897 27.086 26.9462 26.869 26.8039 26.7219 26.6544 26.6038 26.5435 26.4712 26.3941 26.3217 26.2446 26.1216 25.9938 25.8805 25.7672 25.7238 25.7262 25.7552 25.7648 25.7383 25.7118 25.6852 25.6611 25.6298 25.584 25.5261 25.4514 25.3598 25.2609 25.1645 25.0897 25.0271 24.9523 24.839 24.704 24.5714 24.446 24.3231 24.2001 24.0771 23.9542 23.8312 23.742 23.6384 23.5058 23.378 23.2839 23.2309 23.1972 23.1634 23.1393 23.1393 23.1513 23.1634 23.1779 23.1875 23.202 23.214 23.2261 23.2357 23.2261 23.2068 23.1875 23.1706 23.1489 23.1296 23.1104 23.0911 23.0814 23.0935 23.1152 23.1393 23.173 23.243 23.3322 23.3924 23.4021 23.3997 23.4021 23.4021 23.4093 23.419 23.4286 23.4358 23.4407 23.4407 23.4382 23.4334 23.431 23.4286 23.4286 23.4262 23.4238 23.4214 23.4286 23.4455 23.4624 23.4792 23.4937 23.5082 23.5323 23.5612 23.5877 23.6167 23.6408 23.6649 23.689 23.7131 23.7372 23.7613 23.7854 23.8119 23.8409 23.865 23.8939 23.9253 23.9614 24 24.0386 24.1447 24.962 25.5237 25.5912 25.6587 25.731 25.813 25.895 25.9794 26.0638 26.153 26.2542 26.3579 26.464 26.5676 26.6641 26.7461 26.8232 26.9004 26.9775 27.0474 27.1053 27.1583 27.2114 27.2644 27.3174 27.3729 27.4308 27.4886 27.5465 27.6068 27.6743 27.7466 27.8165 27.8888 28.007 28.2047 28.4361 28.6676 28.8966 29.1811 29.5572 29.9695 30.3793 30.7916 31.1532 31.4305 31.674 31.9127 32.1562 32.3804 32.5709 32.7517 32.9301 33.1085 33.2942 33.4918 33.6944 33.8969 34.0994 34.314 34.5527 34.7986 35.0445 35.2904 35.5387 35.7943 36.0547 36.3126 36.5706 36.8262 37.0769 37.3252 37.5736 37.8195 38.0389 38.21 38.3595 38.5114 38.6609 38.8007 38.9165 39.0249 39.1334 39.2419 39.3818 39.5795 39.8037 40.0255 40.2497 40.5101 40.8331 41.1803 41.5299 41.8795 42.1953 42.4557 42.692 42.9282 43.1645 43.3984 43.6274 43.8565 44.0855 44.3121 44.5436 44.7726 45.0017 45.2307 45.4597 45.6622 45.8117 45.9395 46.0697 46.1975 46.3108 46.3952 46.4675 46.5422 46.617 46.6941 46.7785 46.8629 46.9497 47.0365 47.1281 47.2245 47.3234 47.4222 47.5211 47.6151 47.6947 47.7694 47.8466 47.9237 47.9888 48.0394 48.0828 48.1262 48.1696 48.1961 48.1865 48.1672 48.1479 48.1286 48.0901 48.0274 47.9502 47.8755 47.8007 47.7091 47.5958 47.4729 47.3499 47.2294 47.0968 46.9497 46.7978 46.6435 46.4916 46.3325 46.1661 45.995 45.8262 45.655 45.479 45.2934 45.1029 44.9124 44.7244 44.5388 44.3579 44.1819 44.0035 43.8275 43.6612 43.5165 43.3767 43.2393 43.1018 42.9741 42.8583 42.7474 42.6389 42.5304 42.4123 42.2845 42.1495 42.0169 41.8819 41.7324 41.5588 41.3756 41.1924
26.9245 26.9558 26.992 27.0305 27.0667 27.0667 27.0209 26.951 26.8353 26.7244 26.6906 26.6255 26.5315 26.4688 26.4158 26.3627 26.2807 26.1505 25.9794 25.772 25.6009 25.4731 25.3525 25.3332 25.3742 25.4731 25.6443 25.7407 25.7335 25.7093 25.6732 25.625 25.5647 25.4948 25.4056 25.3091 25.2127 25.1163 25.0415 24.9812 24.9186 24.8221 24.6968 24.569 24.446 24.3231 24.2001 24.0771 23.947 23.8023 23.6649 23.5347 23.4045 23.3056 23.2454 23.2092 23.1755 23.1513 23.1489 23.1634 23.1755 23.1875 23.1996 23.2116 23.2237 23.2357 23.2406 23.2333 23.2164 23.1947 23.1755 23.1562 23.1369 23.1176 23.0983 23.0887 23.0983 23.1224 23.1465 23.1851 23.255 23.349 23.4214 23.4382 23.4358 23.431 23.431 23.431 23.4382 23.4479 23.4575 23.4599 23.4575 23.4575 23.4551 23.4527 23.4503 23.4479 23.4455 23.4431 23.4407 23.4479 23.4648 23.4816 23.4985 23.5106 23.5275 23.5443 23.566 23.595 23.6239 23.648 23.6721 23.6962 23.7203 23.742 23.7661 23.7902 23.8168 23.8433 23.8698 23.8987 23.9325 23.9687 24.0096 24.0482 24.0868 23.9518 24.786 25.543 25.6081 25.6732 25.7455 25.8275 25.9119 25.9962 26.0806 26.1747 26.2783 26.3892 26.5001 26.611 26.7123 26.7991 26.8811 26.963 27.045 27.1197 27.1776 27.2282 27.2789 27.3295 27.3849 27.4404 27.4959 27.5513 27.6068 27.6694 27.7394 27.8117 27.884 27.9588 28.0769 28.2746 28.5084 28.7399 28.9738 29.2558 29.6247 30.0322 30.4396 30.8471 31.2063 31.4884 31.7319 31.9754 32.2213 32.4479 32.6408 32.8216 33 33.1808 33.3665 33.5666 33.7739 33.9789 34.1862 34.4056 34.6515 34.9071 35.1602 35.4158 35.6737 35.9341 36.1969 36.4597 36.7225 36.9781 37.2216 37.4602 37.6989 37.9352 38.1498 38.3137 38.456 38.5982 38.7405 38.8706 38.984 39.0876 39.1913 39.295 39.4324 39.6325 39.8639 40.0954 40.3244 40.5945 40.9248 41.2864 41.648 42.0073 42.3327 42.598 42.8342 43.0705 43.3068 43.5454 43.7841 44.0252 44.2687 44.5122 44.7509 44.9872 45.2186 45.4501 45.6815 45.8841 46.0335 46.1613 46.2867 46.4121 46.5254 46.6194 46.7014 46.7857 46.8701 46.9569 47.0437 47.1329 47.2197 47.3089 47.3981 47.4849 47.5741 47.6609 47.7477 47.8321 47.902 47.9695 48.037 48.1045 48.1648 48.2106 48.2516 48.2926 48.3336 48.3577 48.3529 48.3336 48.3167 48.2974 48.2661 48.2034 48.1335 48.0635 47.9936 47.9044 47.7935 47.6706 47.5452 47.4222 47.292 47.145 46.9907 46.8388 46.6869 46.5278 46.3614 46.1902 46.0215 45.8527 45.6767 45.4911 45.303 45.115 44.9245 44.7389 44.5556 44.3772 44.1964 44.0156 43.8468 43.6997 43.5623 43.4249 43.2875 43.1597 43.0536 42.9548 42.8583 42.7595 42.6534 42.5353 42.4123 42.2894 42.1664 42.0314 41.8747 41.7107 41.5444
26.8642 26.8811 26.8955 26.9196 26.9172 26.8473 26.7509 26.7051 26.6761 26.6086 26.5701 26.5218 26.4302 26.3458 26.2807 26.2277 26.0855 25.8178 25.5141 25.2826 25.1621 25.0897 25.0295 25.0198 25.0391 25.0994 25.326 25.596 25.7214 25.7166 25.6635 25.6057 25.5382 25.4538 25.3598 25.2609 25.1645 25.068 24.9909 24.9306 24.8703 24.798 24.6919 24.5617 24.4074 24.2387 24.0699 23.9204 23.7951 23.6745 23.5588 23.4334 23.3298 23.2671 23.2237 23.1875 23.161 23.1586 23.1755 23.1875 23.1996 23.2116 23.2237 23.2333 23.2454 23.2526 23.243 23.2237 23.2044 23.1851 23.1634 23.1441 23.1248 23.1055 23.0959 23.1055 23.1272 23.1513 23.1899 23.2719 23.3732 23.4455 23.4672 23.4696 23.4672 23.4648 23.4624 23.4624 23.4672 23.4768 23.4816 23.4792 23.4768 23.4744 23.472 23.4696 23.4672 23.4648 23.4624 23.4599 23.4672 23.4841 23.5009 23.5154 23.5323 23.5467 23.5636 23.5781 23.6022 23.6287 23.6552 23.6793 23.7035 23.7251 23.7493 23.7734 23.7951 23.8216 23.8481 23.8746 23.9036 23.9397 23.9783 24.0169 24.0554 24.094 24.1326 24.3496 25.0897 25.5623 25.625 25.6901 25.76 25.8419 25.9263 26.0131 26.0999 26.1939 26.3048 26.4206 26.5363 26.652 26.7629 26.8545 26.9389 27.0257 27.1125 27.1897 27.2475 27.2982 27.3488 27.397 27.45 27.5031 27.5585 27.614 27.6694 27.7297 27.802 27.8768 27.9515 28.0263 28.1444 28.3445 28.5808 28.8146 29.0485 29.3306 29.6946 30.0973 30.4999 30.9025 31.2617 31.5438 31.7897 32.0381 32.2864 32.5154 32.7107 32.8891 33.0699 33.2508 33.4388 33.6413 33.8511 34.0608 34.2706 34.4972 34.7479 35.0131 35.2784 35.5436 35.8088 36.074 36.3392 36.6068 36.872 37.1275 37.3662 37.5977 37.8267 38.0557 38.2583 38.415 38.55 38.685 38.82 38.943 39.0515 39.1503 39.2492 39.348 39.483 39.688 39.9266 40.1629 40.3992 40.674 41.0164 41.3877 41.7589 42.1302 42.4678 42.7378 42.9765 43.2176 43.4587 43.7022 43.9505 44.2036 44.4568 44.7099 44.9583 45.1921 45.4212 45.6502 45.8792 46.0793 46.2288 46.3542 46.482 46.6073 46.7231 46.8219 46.9135 47.0027 47.0919 47.1835 47.2703 47.3595 47.4463 47.5355 47.6199 47.7019 47.7815 47.8586 47.9382 48.0129 48.0756 48.1407 48.2034 48.2661 48.3215 48.3649 48.4035 48.4421 48.483 48.5072 48.5023 48.4879 48.4734 48.4589 48.4276 48.3721 48.3046 48.2395 48.172 48.0901 47.9767 47.8562 47.7332 47.6103 47.4801 47.3306 47.1763 47.022 46.8677 46.7086 46.5422 46.3759 46.2071 46.0408 45.8672 45.6864 45.5007 45.3151 45.1294 44.9462 44.7654 44.5822 44.3989 44.2157 44.0445 43.8902 43.7431 43.5985 43.4514 43.3188 43.2079 43.1115 43.0126 42.9162 42.8173 42.7089 42.598 42.487 42.3786 42.2604 42.1254 41.9832 41.8433
26.8136 26.8256 26.8328 26.8087 26.64 26.3796 26.1578 26.1505 26.3241 26.423 26.4061 26.3989 26.3458 26.2398 26.1602 26.0541 25.801 25.4466 25.1428 24.9812 24.9378 24.9282 24.921 24.9186 24.9186 24.9378 25.0319 25.2272 25.4924 25.6539 25.6418 25.5792 25.502 25.408 25.3091 25.2127 25.1163 25.0174 24.9403 24.88 24.8173 24.7715 24.5907 24.352 24.188 24.0482 23.9253 23.8047 23.6818 23.5636 23.4527 23.3539 23.2864 23.2406 23.202 23.173 23.1706 23.1851 23.1996 23.2116 23.2237 23.2357 23.2478 23.2598 23.2647 23.2574 23.2357 23.214 23.1923 23.173 23.1538 23.1345 23.1152 23.1031 23.1104 23.1321 23.1562 23.1947 23.2767 23.39 23.4696 23.4937 23.4961 23.4961 23.4961 23.4961 23.4937 23.4913 23.4985 23.5009 23.4985 23.4961 23.4937 23.4913 23.4889 23.4865 23.4865 23.4841 23.4816 23.4889 23.5033 23.5202 23.5347 23.5516 23.566 23.5829 23.5974 23.6142 23.6359 23.6625 23.6842 23.7083 23.7324 23.7565 23.7806 23.8047 23.8264 23.8505 23.8794 23.9108 23.947 23.9855 24.0241 24.0627 24.1013 24.1398 24.1784 24.8848 25.5165 25.5792 25.6443 25.7045 25.7744 25.8564 25.9432 26.03 26.1168 26.2132 26.329 26.4519 26.5725 26.6954 26.8111 26.91 26.9992 27.0884 27.18 27.2596 27.3174 27.3681 27.4163 27.4645 27.5151 27.5682 27.6236 27.6767 27.7321 27.7924 27.8623 27.9395 28.019 28.0938 28.2143 28.4144 28.6507 28.8894 29.1281 29.4077 29.767 30.1623 30.5577 30.9555 31.31 31.5944 31.8452 32.0959 32.3467 32.5781 32.7758 32.9566 33.1374 33.3207 33.5087 33.7137 33.9258 34.138 34.3501 34.5792 34.8347 35.1048 35.3772 35.6472 35.9172 36.1849 36.4549 36.7225 36.9901 37.2481 37.4819 37.7086 37.9328 38.1594 38.3595 38.5114 38.644 38.7766 38.9068 39.0298 39.1334 39.2275 39.3215 39.4155 39.5481 39.753 39.9917 40.2304 40.4667 40.7439 41.0935 41.4745 41.8554 42.2387 42.5883 42.8704 43.1235 43.3767 43.6322 43.8878 44.1434 44.3989 44.6569 44.9124 45.1608 45.3874 45.602 45.8165 46.0335 46.2264 46.3759 46.5085 46.6411 46.7737 46.8942 46.9979 47.0895 47.1835 47.2752 47.3668 47.4536 47.538 47.6223 47.7091 47.7911 47.8683 47.9406 48.0129 48.0877 48.1576 48.2178 48.2805 48.3408 48.4011 48.4565 48.4999 48.5385 48.5771 48.6156 48.6422 48.6422 48.6301 48.6181 48.6084 48.5843 48.5313 48.4686 48.4059 48.3456 48.2661 48.1576 48.037 47.9165 47.7959 47.6633 47.5138 47.3571 47.2004 47.0437 46.8846 46.7206 46.5543 46.3879 46.224 46.0528 45.8768 45.6984 45.5176 45.3368 45.1584 44.9751 44.7895 44.6038 44.4206 44.2422 44.0807 43.924 43.7697 43.6154 43.4731 43.3646 43.2682 43.1718 43.0729 42.9789 42.88 42.7836 42.6872 42.5907 42.487 42.3761 42.258 42.1399
26.7653 26.7581 26.6785 26.4736 26.1988 25.9312 25.6973 25.625 25.7576 26.0155 26.2012 26.2639 26.2494 26.1505 26.0493 25.854 25.502 25.1669 24.9788 24.9234 24.9113 24.9041 24.8969 24.8945 24.9017 24.921 24.9306 24.9571 25.1211 25.4056 25.5695 25.5454 25.4562 25.3598 25.2609 25.1645 25.068 24.9692 24.892 24.8366 24.7956 24.7643 24.5063 24.1953 24.053 23.9325 23.8095 23.689 23.5708 23.4575 23.3659 23.3081 23.2622 23.2189 23.1851 23.1803 23.1947 23.2092 23.2237 23.2357 23.2478 23.2598 23.2719 23.2791 23.2695 23.2478 23.2261 23.2044 23.1827 23.161 23.1417 23.1224 23.1104 23.1176 23.1393 23.1634 23.1996 23.2791 23.3973 23.4913 23.5202 23.5226 23.5226 23.5226 23.5226 23.5226 23.5202 23.5202 23.5202 23.5202 23.5178 23.513 23.5106 23.5106 23.5082 23.5058 23.5033 23.5009 23.5058 23.5226 23.5371 23.554 23.5684 23.5853 23.6022 23.6167 23.6335 23.6504 23.6697 23.6914 23.7155 23.7372 23.7613 23.7878 23.8119 23.8336 23.8578 23.8843 23.9156 23.9518 23.9904 24.0289 24.0651 24.1037 24.1422 24.1784 24.217 24.8896 25.5358 25.5984 25.6587 25.7214 25.7889 25.8709 25.9601 26.0469 26.1361 26.2349 26.3507 26.4784 26.6062 26.734 26.8521 26.9558 27.0498 27.1439 27.2379 27.3223 27.3849 27.4356 27.4838 27.5344 27.5851 27.6357 27.6887 27.7394 27.7924 27.8478 27.9226 28.0021 28.0817 28.1613 28.2842 28.4867 28.7303 28.9713 29.2148 29.4969 29.8465 30.2323 30.618 31.0014 31.3509 31.6354 31.8886 32.1417 32.3973 32.6336 32.8337 33.0169 33.2001 33.3858 33.5762 33.7812 33.9957 34.2079 34.4225 34.6491 34.9071 35.1771 35.4495 35.7196 35.9896 36.2596 36.5296 36.8021 37.0721 37.3301 37.5663 37.793 38.0196 38.2438 38.4439 38.6006 38.7356 38.8682 39.0032 39.1262 39.2275 39.3167 39.4059 39.4927 39.6204 39.8206 40.0568 40.2931 40.5294 40.8042 41.161 41.5516 41.9446 42.3376 42.6992 43.0006 43.273 43.5454 43.8179 44.0879 44.3483 44.6063 44.8618 45.1174 45.3585 45.573 45.7732 45.9733 46.171 46.3542 46.5085 46.6483 46.7857 46.928 47.0582 47.1619 47.2583 47.3547 47.4488 47.5404 47.6272 47.7091 47.7911 47.8755 47.955 48.0274 48.0973 48.1648 48.2347 48.3022 48.3601 48.4204 48.4782 48.5385 48.5915 48.6349 48.6735 48.7121 48.7507 48.7772 48.7796 48.7724 48.7651 48.7579 48.7386 48.6904 48.6325 48.5747 48.5168 48.4445 48.3384 48.2203 48.0997 47.9816 47.8514 47.6995 47.5404 47.3812 47.2221 47.0606 46.8991 46.7327 46.5688 46.4072 46.2409 46.0673 45.8937 45.7201 45.5465 45.3681 45.1849 44.9992 44.8112 44.6231 44.4423 44.2711 44.1072 43.9433 43.7793 43.6298 43.5165 43.4225 43.3261 43.232 43.138 43.0512 42.9668 42.8849 42.8005 42.7161 42.6221 42.528 42.434
26.6978 26.5676 26.3097 26.0324 25.7817 25.5912 25.5117 25.4972 25.4707 25.5671 25.8203 26.0179 26.1047 26.0734 25.9529 25.6997 25.2802 25.0005 24.921 24.8969 24.8872 24.8776 24.8728 24.8752 24.8872 24.9017 24.8824 24.8294 24.8559 25.0439 25.3381 25.4924 25.4273 25.3284 25.2272 25.1259 25.0246 24.9234 24.8511 24.8077 24.7691 24.7016 24.3713 24.0386 23.9277 23.8095 23.6914 23.5757 23.4648 23.3804 23.3225 23.2791 23.2357 23.1996 23.1899 23.2044 23.2189 23.2333 23.2454 23.2598 23.2719 23.2839 23.2888 23.2815 23.2622 23.2381 23.2164 23.1947 23.173 23.1538 23.1321 23.1176 23.1224 23.1441 23.1682 23.2044 23.2815 23.4021 23.5009 23.5395 23.5492 23.5516 23.5516 23.5516 23.5516 23.5516 23.5516 23.5516 23.5492 23.5467 23.5443 23.5419 23.5395 23.5395 23.5371 23.5347 23.5323 23.5323 23.5443 23.5588 23.5733 23.5901 23.607 23.6215 23.6384 23.6528 23.6673 23.6818 23.701 23.7227 23.7468 23.7685 23.7927 23.8168 23.8409 23.865 23.8915 23.9228 23.959 23.9904 24.0289 24.0651 24.1037 24.1422 24.1784 24.217 24.2556 24.8945 25.5526 25.6129 25.6732 25.7335 25.801 25.8829 25.9746 26.0638 26.1554 26.2542 26.3748 26.505 26.6351 26.7677 26.8883 26.9944 27.0932 27.1897 27.2885 27.3753 27.4428 27.4959 27.5513 27.6068 27.6598 27.708 27.7538 27.802 27.8478 27.9009 27.9732 28.0576 28.142 28.2264 28.3517 28.5591 28.8098 29.0605 29.3113 29.591 29.9333 30.3046 30.6759 31.0447 31.3871 31.6716 31.9272 32.1827 32.4407 32.6794 32.8843 33.0723 33.2604 33.4485 33.6413 33.8487 34.0608 34.2754 34.4876 34.7166 34.9722 35.2446 35.5146 35.7846 36.0571 36.3295 36.602 36.8744 37.1444 37.4072 37.6459 37.8725 38.0991 38.3258 38.5307 38.6898 38.8272 38.9623 39.0997 39.2251 39.3215 39.4059 39.4878 39.5722 39.6952 39.8905 40.1243 40.3582 40.5896 40.8669 41.2261 41.6288 42.0314 42.4364 42.8125 43.1308 43.4201 43.7118 44.0035 44.288 44.5532 44.8112 45.0667 45.3223 45.561 45.7611 45.9443 46.1276 46.3084 46.482 46.6387 46.7857 46.9328 47.0823 47.2197 47.3306 47.4271 47.5235 47.6223 47.714 47.8007 47.8803 47.9623 48.0418 48.119 48.1889 48.254 48.3167 48.3818 48.4469 48.5047 48.5602 48.6156 48.6735 48.7241 48.7675 48.8061 48.8447 48.8857 48.9122 48.9194 48.917 48.9122 48.9074 48.8905 48.8495 48.7965 48.7434 48.6904 48.6205 48.5168 48.4011 48.2829 48.1648 48.037 47.8851 47.7212 47.5597 47.3981 47.2366 47.0751 46.9135 46.7496 46.588 46.4241 46.2578 46.089 45.9202 45.7515 45.5803 45.3946 45.2066 45.0161 44.8281 44.64 44.464 44.2904 44.1168 43.9433 43.789 43.6732 43.5768 43.4828 43.3887 43.2995 43.2224 43.1501 43.0801 43.0102 42.9379 42.8632 42.7908 42.7161
26.4784 26.1819 25.895 25.6418 25.5237 25.5165 25.5117 25.4996 25.449 25.3815 25.4441 25.6587 25.8974 25.977 25.8757 25.5984 25.1765 24.9378 24.8969 24.8703 24.8607 24.8535 24.8511 24.8607 24.8728 24.8559 24.8028 24.745 24.7474 24.8269 25.0222 25.326 25.4417 25.3405 25.2344 25.1235 25.0126 24.9041 24.8269 24.7763 24.716 24.3857 24.0096 23.9228 23.8288 23.7107 23.595 23.4816 23.3973 23.3418 23.2984 23.2526 23.214 23.202 23.214 23.2285 23.243 23.2574 23.2719 23.2839 23.2936 23.3032 23.296 23.2743 23.2502 23.2285 23.2068 23.1827 23.1634 23.1417 23.1272 23.1296 23.1489 23.173 23.214 23.2888 23.4045 23.5106 23.5516 23.5612 23.5733 23.5805 23.5829 23.5829 23.5805 23.5805 23.5805 23.5805 23.5805 23.5781 23.5757 23.5733 23.5708 23.5684 23.5684 23.566 23.566 23.5684 23.5781 23.595 23.6094 23.6239 23.6408 23.6576 23.6745 23.689 23.701 23.7131 23.73 23.7541 23.7782 23.7999 23.824 23.8481 23.8722 23.8987 23.9301 23.9687 24.0024 24.0337 24.0675 24.1013 24.1398 24.1784 24.217 24.2556 24.2917 24.8993 25.5695 25.6298 25.6877 25.7455 25.813 25.8974 25.989 26.0806 26.1747 26.2759 26.3965 26.5315 26.6641 26.7967 26.922 27.0305 27.1342 27.2355 27.3367 27.4283 27.5007 27.5585 27.6188 27.6791 27.7345 27.7803 27.8213 27.8623 27.9009 27.9515 28.0287 28.1155 28.2047 28.2915 28.4192 28.6338 28.8894 29.1473 29.4053 29.6898 30.0201 30.3769 30.7337 31.0906 31.4233 31.7078 31.9657 32.2237 32.4841 32.7252 32.9349 33.1278 33.3207 33.5135 33.7088 33.9162 34.1283 34.3429 34.5551 34.7841 35.0397 35.3097 35.5797 35.8522 36.1246 36.397 36.6719 36.9443 37.2192 37.4844 37.723 37.9521 38.1811 38.4102 38.6175 38.779 38.9189 39.0563 39.1961 39.3215 39.4155 39.4951 39.5746 39.6518 39.7675 39.958 40.1894 40.4209 40.6523 40.9272 41.2936 41.7059 42.1206 42.5329 42.9234 43.2585 43.5671 43.8782 44.1892 44.4881 44.7581 45.0161 45.2717 45.5272 45.7611 45.9516 46.1179 46.2843 46.4482 46.6122 46.7689 46.9232 47.0799 47.239 47.3812 47.497 47.5958 47.6947 47.7959 47.89 47.9743 48.0515 48.131 48.2082 48.2829 48.3504 48.4107 48.4686 48.5313 48.5915 48.647 48.7 48.7555 48.8085 48.8591 48.9025 48.9411 48.9797 49.0183 49.0472 49.0593 49.0593 49.0568 49.0544 49.0424 49.0062 48.958 48.9098 48.864 48.7989 48.7 48.5843 48.4686 48.3529 48.2275 48.0756 47.9117 47.7477 47.5862 47.4222 47.2631 47.1016 46.9425 46.7833 46.6218 46.4603 46.2963 46.1324 45.9708 45.8021 45.6189 45.4284 45.2379 45.0475 44.857 44.6714 44.4905 44.3073 44.1265 43.9625 43.8444 43.748 43.6564 43.5623 43.4731 43.3984 43.3333 43.2658 43.1983 43.1308 43.0633 42.9982 42.9307
26.0855 25.8082 25.5984 25.5189 25.5165 25.5068 25.4875 25.4514 25.4056 25.3525 25.2971 25.3525 25.5743 25.7937 25.8058 25.5647 25.1741 24.921 24.8703 24.8462 24.8342 24.8269 24.8318 24.8438 24.8318 24.7835 24.7329 24.6847 24.6871 24.7402 24.8004 24.9981 25.2754 25.3381 25.2223 25.1066 24.9909 24.8872 24.8125 24.7185 24.3665 23.9759 23.8722 23.8119 23.73 23.6118 23.4985 23.4117 23.3587 23.3153 23.2671 23.2261 23.2116 23.2261 23.2406 23.2526 23.2671 23.2815 23.296 23.3081 23.3153 23.3081 23.2864 23.2647 23.243 23.2189 23.1972 23.173 23.1538 23.1369 23.1393 23.1562 23.1803 23.2189 23.3081 23.431 23.5226 23.5636 23.5708 23.5805 23.5925 23.6046 23.6118 23.6118 23.6118 23.6118 23.6118 23.6118 23.6094 23.607 23.6046 23.6046 23.5998 23.5974 23.5974 23.5974 23.6022 23.6046 23.6142 23.6311 23.6456 23.6601 23.6769 23.6938 23.7083 23.7203 23.7324 23.7444 23.7613 23.7854 23.8095 23.8312 23.8553 23.877 23.9036 23.9373 23.9759 24.0121 24.0482 24.0796 24.1085 24.1422 24.1784 24.217 24.2556 24.2917 24.3303 24.9041 25.5864 25.6443 25.6997 25.76 25.8251 25.9095 26.0035 26.0975 26.1915 26.2952 26.4182 26.5556 26.693 26.828 26.9558 27.0691 27.1728 27.2789 27.3849 27.479 27.5561 27.6212 27.6863 27.749 27.8093 27.8527 27.8864 27.9226 27.9563 28.0046 28.0817 28.1733 28.2649 28.3566 28.4867 28.7061 28.9689 29.2341 29.5017 29.7862 30.1069 30.4517 30.794 31.1364 31.4594 31.7439 32.0043 32.2647 32.5275 32.7734 32.988 33.1832 33.3809 33.5762 33.7763 33.9837 34.1958 34.408 34.6226 34.8492 35.1048 35.3748 35.6448 35.9172 36.1897 36.4645 36.7394 37.0166 37.2939 37.5591 37.8026 38.034 38.2631 38.4921 38.7019 38.8658 39.0081 39.1527 39.2926 39.4179 39.5095 39.5843 39.659 39.7313 39.8423 40.0303 40.2593 40.4908 40.7198 40.9947 41.3636 41.7855 42.2074 42.6269 43.0271 43.3743 43.6973 44.018 44.3435 44.6497 44.9221 45.1752 45.4284 45.6815 45.913 46.0962 46.2505 46.4072 46.5639 46.7206 46.8798 47.0413 47.2028 47.3668 47.5163 47.632 47.7332 47.8321 47.9334 48.0298 48.1118 48.1889 48.2661 48.3456 48.4204 48.483 48.5409 48.5988 48.659 48.7193 48.7724 48.8254 48.8808 48.9339 48.9869 49.0303 49.0689 49.1099 49.1509 49.1798 49.1943 49.1943 49.1967 49.1991 49.1919 49.1605 49.1171 49.0761 49.0351 48.9773 48.8833 48.7724 48.6615 48.553 48.43 48.2805 48.1166 47.9526 47.7911 47.6272 47.468 47.3089 47.1498 46.9907 46.834 46.6773 46.5181 46.3614 46.2071 46.0432 45.8599 45.6695 45.4766 45.2837 45.0909 44.9004 44.7099 44.5195 44.329 44.1578 44.0349 43.9408 43.8444 43.748 43.6588 43.5816 43.5117 43.4418 43.3719 43.3019 43.232 43.1621 43.0922
25.7479 25.5647 25.5165 25.5141 25.5044 25.4731 25.4297 25.3839 25.3405 25.2947 25.2489 25.2031 25.2561 25.49 25.6635 25.5213 25.1597 24.9065 24.8438 24.8197 24.8077 24.8077 24.8149 24.8052 24.7619 24.7209 24.6799 24.6317 24.6292 24.6751 24.6968 24.7402 24.9499 25.1814 25.1814 25.0825 24.9668 24.8679 24.6992 24.3134 23.9494 23.8336 23.7637 23.701 23.6215 23.5154 23.4286 23.378 23.3273 23.2791 23.2357 23.2213 23.2357 23.2502 23.2647 23.2767 23.2912 23.3056 23.3201 23.3273 23.3225 23.3008 23.2767 23.255 23.2309 23.2092 23.1875 23.1658 23.1489 23.1489 23.1658 23.1875 23.2261 23.3105 23.4479 23.554 23.5829 23.5853 23.5901 23.5998 23.6118 23.6239 23.6359 23.6432 23.6432 23.6432 23.6432 23.6432 23.6408 23.6384 23.6359 23.6335 23.6311 23.6287 23.6287 23.6335 23.6359 23.6408 23.648 23.6649 23.6818 23.6962 23.7131 23.73 23.742 23.7517 23.7637 23.7758 23.7902 23.8144 23.8385 23.8626 23.8867 23.9108 23.9421 23.9807 24.0193 24.0579 24.0916 24.123 24.1543 24.1856 24.217 24.2531 24.2917 24.3303 24.3665 24.9113 25.6009 25.6587 25.7142 25.772 25.8371 25.9215 26.0179 26.1144 26.2108 26.3145 26.4423 26.5821 26.7195 26.8594 26.9896 27.1077 27.2162 27.3247 27.4308 27.532 27.6116 27.6815 27.7514 27.8213 27.884 27.925 27.9539 27.9853 28.0166 28.06 28.1372 28.2336 28.33 28.4241 28.5591 28.7785 29.0485 29.3185 29.5885 29.8706 30.1816 30.5119 30.8422 31.1725 31.4859 31.768 32.0284 32.2888 32.5516 32.7999 33.0145 33.2146 33.4147 33.6124 33.8149 34.0247 34.2392 34.4538 34.6684 34.8974 35.153 35.4254 35.6979 35.9703 36.2427 36.52 36.7948 37.0721 37.3469 37.6145 37.8581 38.0895 38.3234 38.5548 38.7694 38.9382 39.0828 39.2275 39.3721 39.5023 39.5939 39.6687 39.7434 39.8181 39.9266 40.1147 40.3485 40.5824 40.8163 41.0887 41.4552 41.8747 42.2918 42.7089 43.1042 43.4514 43.7721 44.0951 44.4158 44.7196 44.9896 45.2379 45.4863 45.737 45.966 46.1517 46.3108 46.4723 46.6339 46.7954 46.9593 47.1233 47.2896 47.456 47.6079 47.726 47.8273 47.9285 48.0298 48.1262 48.2106 48.2878 48.3649 48.4445 48.5168 48.5819 48.6446 48.7048 48.7651 48.8278 48.8833 48.9387 48.9966 49.052 49.1051 49.1509 49.1919 49.2353 49.2787 49.31 49.3245 49.3293 49.3341 49.3389 49.3341 49.31 49.2762 49.2401 49.2039 49.1557 49.0713 48.9652 48.8616 48.7579 48.6398 48.4927 48.3287 48.1648 48.0009 47.8393 47.6802 47.5235 47.3644 47.2077 47.0509 46.8991 46.7472 46.5977 46.4482 46.2867 46.1059 45.913 45.7177 45.5224 45.3271 45.1294 44.9317 44.7316 44.5315 44.3555 44.2277 44.1313 44.0349 43.936 43.8444 43.7648 43.6901 43.6178 43.5454 43.4731 43.3984 43.3261 43.2513
25.5309 25.5165 25.5092 25.4996 25.461 25.408 25.3646 25.3188 25.273 25.2296 25.1838 25.1404 25.0994 25.1621 25.3429 25.3284 25.0632 24.8872 24.8221 24.7932 24.7835 24.7884 24.7811 24.7426 24.704 24.6726 24.6268 24.5762 24.5714 24.6148 24.6292 24.6317 24.6799 24.8462 25.0198 25.0295 24.9451 24.7136 24.2773 23.9373 23.8192 23.7444 23.6697 23.595 23.5154 23.4407 23.3876 23.3394 23.2888 23.2454 23.2333 23.2454 23.2598 23.2743 23.2888 23.3008 23.3153 23.3298 23.3394 23.3346 23.3129 23.2912 23.2695 23.2454 23.2213 23.1996 23.1779 23.161 23.1586 23.173 23.1947 23.2309 23.3129 23.4479 23.5636 23.6022 23.6022 23.6046 23.6094 23.6191 23.6311 23.6432 23.6576 23.6697 23.6721 23.6721 23.6721 23.6721 23.6721 23.6697 23.6649 23.6649 23.6625 23.6625 23.6649 23.6697 23.6721 23.6769 23.6866 23.701 23.7179 23.7324 23.7468 23.7613 23.7734 23.783 23.7951 23.8047 23.8216 23.8457 23.8698 23.8939 23.918 23.9494 23.9879 24.0265 24.0651 24.1013 24.1374 24.1688 24.2001 24.229 24.2604 24.2917 24.3279 24.3665 24.405 24.9186 25.6177 25.6732 25.7286 25.7841 25.8492 25.936 26.0324 26.1313 26.2277 26.3338 26.464 26.6062 26.7485 26.8907 27.0257 27.1463 27.2572 27.3705 27.4814 27.5851 27.6694 27.7418 27.8141 27.8864 27.9491 27.9949 28.0287 28.0648 28.101 28.1468 28.2264 28.3228 28.4168 28.5133 28.6459 28.8604 29.1232 29.3836 29.644 29.9164 30.2202 30.5409 30.8615 31.1822 31.4908 31.7656 32.0212 32.2767 32.5323 32.7782 32.9952 33.1977 33.4002 33.6003 33.8077 34.0223 34.2441 34.4659 34.6877 34.9191 35.1795 35.4568 35.7316 36.0065 36.2837 36.5561 36.8286 37.1034 37.3759 37.6411 37.8894 38.1257 38.3643 38.6006 38.8176 38.9936 39.1407 39.2901 39.4372 39.5722 39.6711 39.7482 39.8278 39.9073 40.0182 40.2111 40.4498 40.6909 40.932 41.2068 41.5637 41.9687 42.3761 42.7812 43.1669 43.5045 43.8179 44.1313 44.4423 44.7389 45.0041 45.25 45.4959 45.7418 45.9708 46.1661 46.3373 46.5109 46.6845 46.8557 47.0268 47.1956 47.3644 47.5331 47.6898 47.8104 47.9117 48.0153 48.119 48.2154 48.3022 48.3794 48.4589 48.5385 48.6132 48.6807 48.7458 48.8085 48.8736 48.9363 48.9942 49.052 49.1123 49.1702 49.2256 49.2714 49.3172 49.3606 49.404 49.4402 49.4571 49.4643 49.4715 49.4788 49.4788 49.4619 49.433 49.404 49.3775 49.3341 49.257 49.1581 49.0593 48.9604 48.8495 48.7048 48.5433 48.377 48.213 48.0515 47.8924 47.7357 47.5789 47.4222 47.2679 47.1209 46.9762 46.8316 46.6869 46.5326 46.3518 46.1565 45.9588 45.7635 45.5658 45.3609 45.1535 44.9462 44.7365 44.5508 44.4182 44.3194 44.2205 44.1241 44.03 43.9457 43.8709 43.7962 43.7214 43.6443 43.5671 43.49 43.4128
25.5141 25.5068 25.49 25.4466 25.3887 25.3453 25.2995 25.2537 25.2103 25.1645 25.1187 25.0753 25.0343 25.0005 25.0174 25.0246 24.9354 24.8679 24.8052 24.7667 24.7619 24.757 24.7257 24.6943 24.6654 24.6196 24.569 24.5208 24.5135 24.5521 24.5593 24.5642 24.569 24.6051 24.7185 24.8655 24.7474 24.2773 23.9373 23.8216 23.7493 23.6818 23.6118 23.5347 23.4551 23.3973 23.3466 23.296 23.2526 23.243 23.2574 23.2695 23.2839 23.2984 23.3129 23.3273 23.3418 23.3515 23.3466 23.3249 23.3032 23.2791 23.2574 23.2357 23.214 23.1899 23.173 23.1706 23.1851 23.202 23.2357 23.3201 23.4575 23.5612 23.607 23.6191 23.6215 23.6215 23.6287 23.6384 23.6504 23.6625 23.6769 23.689 23.6986 23.7035 23.7035 23.7035 23.701 23.6986 23.6962 23.6962 23.6938 23.6986 23.701 23.7059 23.7083 23.7131 23.7203 23.7372 23.7517 23.7685 23.783 23.7927 23.8047 23.8144 23.8264 23.8361 23.8529 23.877 23.9011 23.9253 23.9566 23.9928 24.0337 24.0699 24.1085 24.1471 24.1832 24.2146 24.2435 24.2748 24.3062 24.3351 24.3689 24.405 24.4412 24.9258 25.6298 25.6877 25.7431 25.7986 25.8636 25.948 26.0469 26.1457 26.247 26.3555 26.4857 26.6327 26.7774 26.9245 27.0643 27.1873 27.3006 27.4139 27.5272 27.6357 27.7225 27.7972 27.8695 27.9443 28.0118 28.0648 28.1106 28.1589 28.2071 28.2649 28.3445 28.4361 28.5301 28.6218 28.7471 28.9472 29.1907 29.4342 29.6777 29.9357 30.2274 30.5433 30.8591 31.1749 31.4763 31.7463 31.9947 32.243 32.4913 32.7324 32.9518 33.1567 33.3617 33.5666 33.7787 34.003 34.232 34.4635 34.6925 34.9336 35.1988 35.4785 35.7581 36.0378 36.3175 36.5899 36.8623 37.1324 37.4024 37.6676 37.9159 38.157 38.4005 38.6416 38.8658 39.0442 39.1985 39.3504 39.5047 39.6421 39.7458 39.8278 39.9098 39.9941 40.1099 40.3076 40.5535 40.8018 41.0477 41.3226 41.6722 42.0675 42.4605 42.8535 43.2272 43.5575 43.8613 44.1675 44.4688 44.7606 45.0209 45.262 45.5055 45.7466 45.9757 46.1782 46.3638 46.5495 46.7351 46.9183 47.0943 47.2679 47.4391 47.6103 47.7718 47.8948 47.9984 48.1021 48.2058 48.3046 48.3914 48.471 48.553 48.6325 48.7121 48.782 48.8471 48.9122 48.9797 49.0448 49.1075 49.1653 49.2256 49.2883 49.3462 49.3944 49.4402 49.486 49.5318 49.5704 49.5897 49.5993 49.609 49.6186 49.6234 49.6114 49.5897 49.568 49.5463 49.5125 49.4426 49.351 49.257 49.1653 49.0593 48.9194 48.7555 48.5915 48.4252 48.2636 48.1069 47.9502 47.7935 47.6392 47.4873 47.3427 47.2028 47.0654 46.928 46.7761 46.5977 46.4 46.2023 46.0046 45.8045 45.5923 45.3753 45.1584 44.9414 44.7461 44.6135 44.5122 44.411 44.3097 44.2157 44.1313 44.0542 43.9746 43.8974 43.8179 43.7383 43.6588 43.5792
25.502 25.4779 25.4273 25.367 25.3212 25.2778 25.232 25.1886 25.1452 25.1018 25.0584 25.0174 24.9812 24.9499 24.9234 24.9065 24.8969 24.8655 24.7932 24.7426 24.7329 24.7112 24.6823 24.6558 24.6148 24.5642 24.5135 24.4653 24.4533 24.487 24.4918 24.4966 24.4991 24.5039 24.5015 24.5256 24.4533 24.1157 23.8794 23.8095 23.7348 23.6601 23.566 23.4624 23.4069 23.3563 23.3032 23.2622 23.2526 23.2671 23.2815 23.296 23.3081 23.3249 23.337 23.349 23.3635 23.3611 23.3394 23.3177 23.2936 23.2719 23.2478 23.2261 23.2044 23.1851 23.1827 23.1972 23.214 23.2406 23.3298 23.4744 23.5708 23.607 23.6191 23.6311 23.6408 23.6432 23.648 23.6576 23.6697 23.6818 23.6962 23.7083 23.7203 23.73 23.7324 23.7324 23.7324 23.73 23.7276 23.7276 23.73 23.7348 23.7372 23.7396 23.7444 23.7493 23.7565 23.7734 23.7878 23.8023 23.8144 23.824 23.8336 23.8457 23.8578 23.8674 23.8843 23.9084 23.9325 23.9614 24.0024 24.0386 24.0771 24.1157 24.1543 24.1929 24.2266 24.258 24.2869 24.3206 24.3496 24.3809 24.4123 24.4436 24.4798 24.933 25.6443 25.6997 25.7552 25.8106 25.8757 25.9625 26.0638 26.1626 26.2639 26.3748 26.5098 26.6593 26.8087 26.9582 27.1029 27.2282 27.344 27.4621 27.5778 27.6863 27.7755 27.8503 27.925 27.9997 28.0697 28.1347 28.1926 28.2529 28.3132 28.3783 28.4602 28.5494 28.641 28.7327 28.8484 29.034 29.2607 29.4873 29.7115 29.9526 30.2371 30.5481 30.8591 31.1677 31.4667 31.7295 31.9705 32.2116 32.4527 32.6866 32.906 33.1157 33.3255 33.5328 33.7498 33.9813 34.22 34.4586 34.6973 34.9456 35.2181 35.5026 35.7846 36.0691 36.3512 36.6261 36.8937 37.1589 37.4265 37.6917 37.9448 38.1908 38.4343 38.6826 38.9116 39.0973 39.254 39.4107 39.5674 39.7121 39.8206 39.9073 39.9941 40.0833 40.2015 40.4016 40.6547 40.9079 41.161 41.4407 41.7831 42.164 42.5449 42.9258 43.2899 43.613 43.9071 44.2036 44.4954 44.7798 45.0354 45.2741 45.5128 45.7515 45.9829 46.1927 46.3904 46.588 46.7857 46.9786 47.1619 47.3378 47.5138 47.6898 47.8514 47.9792 48.0828 48.1889 48.2926 48.3914 48.4806 48.5626 48.6446 48.7265 48.8085 48.8808 48.9484 49.0183 49.0858 49.1533 49.2184 49.2787 49.3413 49.4016 49.4619 49.5149 49.5607 49.609 49.6548 49.6933 49.715 49.7271 49.7391 49.7512 49.7584 49.7512 49.7367 49.7199 49.7054 49.6765 49.6138 49.527 49.4426 49.3582 49.257 49.1195 48.9604 48.7989 48.6398 48.4806 48.3239 48.1696 48.0153 47.861 47.7115 47.5717 47.4391 47.3065 47.1715 47.0268 46.8484 46.6531 46.4554 46.2578 46.0576 45.8407 45.6189 45.3922 45.1704 44.9679 44.8281 44.7244 44.6231 44.5219 44.423 44.3362 44.2591 44.1795 44.1 44.0204 43.9384 43.8565 43.7721
25.4707 25.408 25.3477 25.3019 25.2585 25.2127 25.1693 25.1259 25.0825 25.0415 25.0029 24.9668 24.9354 24.9065 24.8896 24.8824 24.8776 24.8607 24.8004 24.7209 24.6968 24.6726 24.6461 24.61 24.5593 24.5087 24.4581 24.4099 24.393 24.4195 24.4243 24.4291 24.4291 24.4171 24.3689 24.2724 24.1567 23.9904 23.8602 23.7854 23.7107 23.6046 23.4768 23.4165 23.3635 23.3129 23.2719 23.2647 23.2767 23.2912 23.3056 23.3201 23.3346 23.349 23.3611 23.3732 23.3732 23.3587 23.3346 23.3081 23.2839 23.2622 23.2406 23.2164 23.1972 23.1947 23.2092 23.2261 23.255 23.337 23.4841 23.5877 23.607 23.6191 23.6311 23.6432 23.6552 23.6625 23.6649 23.6769 23.689 23.701 23.7155 23.7276 23.7396 23.7517 23.7589 23.7613 23.7613 23.7613 23.7589 23.7637 23.7661 23.771 23.7734 23.7758 23.7806 23.7854 23.7927 23.8095 23.824 23.8336 23.8433 23.8553 23.8674 23.877 23.8891 23.8987 23.9156 23.9397 23.9711 24.0072 24.0458 24.0844 24.123 24.1615 24.1977 24.2363 24.2724 24.3038 24.3327 24.364 24.3954 24.4267 24.4581 24.4894 24.5208 24.892 25.5695 25.7142 25.7696 25.8227 25.8878 25.9746 26.0782 26.1819 26.2832 26.3941 26.5315 26.6858 26.8377 26.992 27.139 27.2692 27.3874 27.5079 27.626 27.7369 27.8286 27.9033 27.978 28.0552 28.1323 28.2047 28.2746 28.3469 28.4192 28.494 28.5784 28.6652 28.7519 28.8412 28.9521 29.1232 29.3306 29.5379 29.7453 29.9719 30.2443 30.5505 30.8567 31.1605 31.4546 31.7102 31.944 32.1779 32.4117 32.6432 32.8602 33.0748 33.2869 33.5015 33.7209 33.9572 34.2055 34.4538 34.7021 34.9577 35.235 35.5243 35.8136 36.1029 36.3874 36.6598 36.925 37.1878 37.453 37.7158 37.9714 38.2221 38.4728 38.7236 38.9598 39.1503 39.3118 39.471 39.6349 39.7844 39.8977 39.9893 40.0809 40.1725 40.2955 40.5028 40.7608 41.0188 41.2792 41.5588 41.894 42.2628 42.6317 43.0006 43.355 43.6684 43.9553 44.2446 44.5291 44.8088 45.0619 45.3006 45.5393 45.778 46.0118 46.2288 46.4362 46.6435 46.8533 47.0534 47.239 47.415 47.5886 47.7646 47.9261 48.0515 48.1576 48.2612 48.3673 48.4686 48.5602 48.6446 48.7265 48.8109 48.8953 48.9701 49.04 49.1123 49.1822 49.2545 49.3172 49.3823 49.445 49.5077 49.5656 49.6186 49.6644 49.7102 49.756 49.7946 49.8163 49.8308 49.8452 49.8573 49.8645 49.8621 49.85 49.8404 49.8283 49.8042 49.7488 49.6716 49.5945 49.5197 49.4281 49.3004 49.1485 48.999 48.8495 48.7 48.5505 48.3987 48.2468 48.0973 47.9502 47.8152 47.685 47.5548 47.4271 47.2848 47.1112 46.9159 46.7231 46.5278 46.3277 46.1107 45.8816 45.655 45.4236 45.2162 45.0692 44.9655 44.8594 44.7533 44.6521 44.5629 44.4857 44.4062 44.3266 44.2446 44.1602 44.0734 43.9866
25.3887 25.326 25.2826 25.2368 25.1934 25.15 25.109 25.068 25.0271 24.9861 24.9499 24.9186 24.892 24.8776 24.8679 24.8631 24.8559 24.8366 24.8077 24.757 24.6654 24.6365 24.6027 24.5545 24.5039 24.4533 24.4026 24.352 24.3303 24.352 24.3568 24.352 24.3351 24.3134 24.2507 24.1205 24.0072 23.9228 23.8336 23.7589 23.6456 23.4913 23.4262 23.3732 23.3225 23.2815 23.2743 23.2888 23.3032 23.3177 23.3298 23.3442 23.3587 23.3707 23.3828 23.3876 23.3732 23.3515 23.3298 23.3032 23.2791 23.2526 23.2309 23.2116 23.2068 23.2189 23.2333 23.2622 23.3466 23.4961 23.5974 23.6167 23.6263 23.6359 23.6456 23.6576 23.6673 23.6793 23.6842 23.6962 23.7083 23.7203 23.7348 23.7468 23.7589 23.7734 23.783 23.7902 23.7927 23.7927 23.7951 23.7975 23.8023 23.8071 23.8095 23.8119 23.8168 23.8216 23.8288 23.8433 23.8553 23.865 23.8746 23.8867 23.8987 23.9084 23.918 23.9325 23.947 23.9783 24.0169 24.053 24.0916 24.1302 24.1663 24.2049 24.2435 24.2821 24.3158 24.3472 24.3785 24.4099 24.4388 24.4701 24.5015 24.5328 24.5642 24.7257 25.2296 25.7262 25.7817 25.8371 25.8998 25.989 26.0927 26.1964 26.3 26.4133 26.5556 26.7099 26.8666 27.0257 27.1752 27.3078 27.4308 27.5537 27.6743 27.7876 27.8792 27.9588 28.0359 28.1131 28.1902 28.2722 28.3566 28.4409 28.5229 28.6049 28.6917 28.7761 28.8629 28.9472 29.0509 29.21 29.4005 29.591 29.7814 29.9912 30.254 30.5529 30.8519 31.1484 31.4329 31.6836 31.9127 32.1417 32.3708 32.595 32.8144 33.0289 33.2435 33.4605 33.6823 33.9234 34.1766 34.4321 34.6877 34.9505 35.2301 35.5243 35.816 36.1101 36.3994 36.6743 36.9371 37.2023 37.4651 37.7279 37.9858 38.2414 38.4969 38.7525 38.9936 39.1913 39.3625 39.5312 39.7024 39.8615 39.9869 40.0882 40.1918 40.2955 40.4257 40.633 40.891 41.149 41.4069 41.6818 42.0049 42.3617 42.7209 43.0777 43.4201 43.7287 44.0132 44.2977 44.5822 44.8594 45.1174 45.3585 45.6044 45.8479 46.0866 46.3084 46.5205 46.7351 46.9473 47.1522 47.333 47.4994 47.6681 47.8345 47.9888 48.1142 48.2178 48.3239 48.43 48.5313 48.6253 48.7121 48.7989 48.8857 48.9701 49.0496 49.1219 49.1967 49.269 49.3437 49.4088 49.4715 49.5342 49.5969 49.6572 49.7078 49.7488 49.7922 49.8356 49.8742 49.8983 49.9127 49.9272 49.9417 49.9513 49.9513 49.9441 49.9368 49.9296 49.9103 49.8621 49.7946 49.7295 49.662 49.5848 49.4691 49.3317 49.1943 49.0593 48.9194 48.7772 48.6301 48.483 48.336 48.1937 48.0611 47.9334 47.808 47.6826 47.5452 47.374 47.1835 46.9931 46.8002 46.6025 46.3831 46.1493 45.9154 45.6815 45.467 45.3151 45.2042 45.0957 44.9848 44.8787 44.7895 44.7099 44.6328 44.5508 44.4712 44.382 44.2928 44.2012
25.3067 25.2609 25.2175 25.1741 25.1331 25.0921 25.0512 25.0126 24.9692 24.933 24.9017 24.8776 24.8607 24.8559 24.8486 24.839 24.8197 24.7715 24.7522 24.8173 24.7353 24.5931 24.5497 24.4991 24.4484 24.3954 24.3472 24.2965 24.27 24.2797 24.27 24.2507 24.2266 24.1953 24.123 24.0048 23.9373 23.8819 23.8071 23.6866 23.5106 23.4358 23.3828 23.3298 23.2888 23.2864 23.2984 23.3129 23.3249 23.3394 23.3539 23.3659 23.3804 23.3924 23.3973 23.3876 23.3707 23.3466 23.3225 23.2984 23.2743 23.2502 23.2261 23.2164 23.2237 23.2357 23.2622 23.3466 23.5033 23.6142 23.6311 23.6384 23.648 23.6576 23.6673 23.6745 23.6842 23.6938 23.701 23.7155 23.7276 23.7396 23.7541 23.7661 23.7806 23.7927 23.8047 23.8168 23.824 23.8264 23.8312 23.8336 23.8385 23.8409 23.8457 23.8505 23.8505 23.8553 23.8626 23.8746 23.8843 23.8963 23.9084 23.9156 23.9301 23.9397 23.9494 23.9614 23.9831 24.0193 24.0579 24.094 24.1326 24.1712 24.2073 24.2459 24.2845 24.3206 24.352 24.3833 24.4147 24.4436 24.4749 24.5063 24.5376 24.5666 24.5979 24.6292 25.0029 25.7407 25.7961 25.8516 25.9143 26.0035 26.1096 26.2156 26.3217 26.4375 26.5773 26.7364 26.8955 27.0571 27.2114 27.3464 27.4693 27.5947 27.7201 27.8382 27.9322 28.0118 28.0938 28.1733 28.2553 28.3421 28.4313 28.5205 28.6097 28.6989 28.7857 28.8701 28.9545 29.0413 29.1401 29.2872 29.4656 29.644 29.82 30.0153 30.2636 30.5481 30.8326 31.1171 31.3895 31.6354 31.8645 32.0911 32.3177 32.5444 32.7613 32.9759 33.1905 33.4051 33.6269 33.8704 34.1259 34.3839 34.6419 34.9047 35.1916 35.4881 35.7871 36.086 36.3801 36.6598 36.9274 37.195 37.4627 37.7279 37.9931 38.251 38.509 38.7694 39.0153 39.2226 39.4059 39.5891 39.7723 39.9483 40.0882 40.2063 40.3244 40.4426 40.5848 40.7922 41.0429 41.2912 41.542 41.8096 42.1206 42.4653 42.8077 43.1525 43.4852 43.789 44.0734 44.3579 44.6424 44.9221 45.1849 45.4356 45.6864 45.9395 46.1854 46.4096 46.6242 46.8388 47.0534 47.2583 47.4343 47.591 47.7477 47.902 48.0491 48.172 48.2781 48.3842 48.4879 48.5915 48.688 48.7772 48.8664 48.958 49.0472 49.1268 49.2039 49.2787 49.3558 49.4305 49.498 49.5607 49.6234 49.6885 49.7464 49.7946 49.838 49.8766 49.9176 49.9561 49.9778 49.9923 50.0092 50.026 50.0381 50.0405 50.0357 50.0309 50.0285 50.014 49.9754 49.9176 49.8621 49.8066 49.7391 49.6379 49.5125 49.392 49.2666 49.1412 49.0062 48.8616 48.7193 48.5771 48.4372 48.307 48.1841 48.0611 47.9382 47.8056 47.6392 47.4512 47.2607 47.0726 46.8749 46.6531 46.4145 46.1758 45.9347 45.7153 45.5586 45.4453 45.332 45.2162 45.1077 45.0161 44.939 44.857 44.7774 44.6979 44.6063 44.5122 44.4158
25.244 25.2006 25.1597 25.1187 25.0777 25.0367 24.9957 24.9547 24.9162 24.8848 24.8607 24.8462 24.839 24.8318 24.8221 24.8028 24.7619 24.6751 24.6365 24.7811 24.8583 24.6437 24.4749 24.4267 24.3809 24.3327 24.2845 24.2387 24.2025 24.1905 24.1663 24.1398 24.1157 24.082 24.0096 23.9036 23.8119 23.7637 23.7276 23.525 23.4479 23.3924 23.3394 23.3008 23.296 23.3081 23.3225 23.337 23.349 23.3659 23.378 23.3924 23.4045 23.4069 23.3973 23.3852 23.3659 23.3394 23.3153 23.2912 23.2671 23.2454 23.2333 23.2333 23.2381 23.2598 23.3442 23.5082 23.6384 23.6601 23.6697 23.6769 23.6818 23.689 23.6962 23.7035 23.7083 23.7155 23.7227 23.7372 23.7493 23.7613 23.7758 23.7878 23.7999 23.8144 23.8264 23.8409 23.8578 23.8626 23.865 23.8698 23.8722 23.877 23.8794 23.8819 23.8867 23.8891 23.8915 23.9011 23.9132 23.9253 23.9349 23.9445 23.9566 23.9662 23.9783 23.9904 24.0121 24.0506 24.0892 24.1254 24.1639 24.2025 24.2387 24.2773 24.3134 24.3472 24.3785 24.4074 24.4388 24.4677 24.4991 24.528 24.5593 24.5907 24.622 24.6606 25.0078 25.7527 25.8106 25.8661 25.9312 26.0204 26.1289 26.2373 26.3458 26.4616 26.6038 26.7629 26.9245 27.086 27.2427 27.3801 27.5079 27.6357 27.7611 27.8816 27.9804 28.0648 28.1516 28.236 28.3228 28.412 28.5012 28.5928 28.682 28.7712 28.8604 28.9472 29.034 29.1232 29.2197 29.3595 29.5259 29.6946 29.861 30.0418 30.2732 30.5409 30.8085 31.0737 31.3341 31.5752 31.8066 32.0356 32.2647 32.4913 32.7083 32.9205 33.1326 33.3448 33.5642 33.8077 34.0657 34.326 34.584 34.8492 35.1385 35.4447 35.7509 36.0571 36.356 36.6405 36.913 37.1854 37.4578 37.7279 37.9955 38.2583 38.5211 38.7839 39.037 39.254 39.4517 39.6494 39.8447 40.0327 40.187 40.322 40.457 40.5921 40.7439 40.9489 41.1948 41.4359 41.6794 41.9374 42.2387 42.5666 42.8993 43.2296 43.5503 43.8516 44.1361 44.4206 44.7051 44.9848 45.2524 45.5128 45.7707 46.0311 46.2819 46.5133 46.7279 46.9449 47.1594 47.3644 47.5355 47.6802 47.8273 47.9719 48.1118 48.2299 48.336 48.4421 48.5481 48.6518 48.7507 48.8423 48.9339 49.0279 49.1195 49.2039 49.2859 49.363 49.4426 49.5222 49.5897 49.6523 49.715 49.7777 49.838 49.8838 49.9224 49.9634 49.9995 50.0333 50.0574 50.0767 50.0935 50.1104 50.1249 50.1297 50.1297 50.1273 50.1273 50.1201 50.0887 50.0429 49.9947 49.9489 49.8934 49.8042 49.6957 49.5848 49.4763 49.363 49.2353 49.0954 48.9532 48.8158 48.6783 48.553 48.4324 48.3143 48.1937 48.066 47.902 47.7164 47.5307 47.3451 47.1498 46.9256 46.6821 46.4362 46.1902 45.9636 45.8021 45.6839 45.5682 45.4501 45.3392 45.2452 45.168 45.0884 45.0089 44.9269 44.8353 44.7389 44.64
25.1838 25.1428 25.1018 25.0608 25.0198 24.9788 24.9378 24.9017 24.8703 24.8462 24.8318 24.8245 24.8173 24.8028 24.7835 24.7474 24.6726 24.5762 24.5497 24.6558 24.8125 24.7763 24.5208 24.352 24.3086 24.2628 24.2218 24.1856 24.1567 24.1422 24.1302 24.1157 24.082 24.0048 23.9108 23.8119 23.7083 23.6215 23.5443 23.4575 23.3997 23.349 23.3105 23.3056 23.3201 23.3346 23.3466 23.3611 23.3756 23.3876 23.4021 23.4141 23.4165 23.4069 23.3973 23.3828 23.3611 23.3346 23.3105 23.2864 23.2622 23.2502 23.2526 23.255 23.2598 23.3081 23.472 23.6504 23.6914 23.6986 23.7059 23.7107 23.7155 23.7203 23.7251 23.73 23.7348 23.7396 23.7468 23.7589 23.771 23.7854 23.7975 23.8119 23.824 23.8361 23.8529 23.8746 23.8915 23.8963 23.8987 23.9036 23.906 23.9108 23.9132 23.9156 23.9204 23.918 23.918 23.9301 23.9397 23.9518 23.9638 23.9735 23.9831 23.9952 24.0072 24.0241 24.0458 24.082 24.1205 24.1591 24.1977 24.2339 24.27 24.3086 24.3423 24.3713 24.4026 24.4316 24.4629 24.4942 24.5232 24.5545 24.5834 24.6148 24.6534 24.6943 25.0174 25.7672 25.8227 25.8805 25.9456 26.0372 26.1481 26.259 26.3675 26.4857 26.6303 26.7919 26.9534 27.1149 27.2716 27.4139 27.5417 27.6718 27.802 27.9274 28.0311 28.1203 28.2095 28.2987 28.3903 28.4795 28.5711 28.6627 28.7544 28.8436 28.9352 29.0244 29.1136 29.2028 29.3016 29.4318 29.5885 29.7453 29.8996 30.0683 30.2829 30.5336 30.7844 31.0327 31.2786 31.5149 31.7463 31.9778 32.2092 32.4383 32.6553 32.865 33.0748 33.2845 33.5015 33.7426 34.0054 34.2658 34.5261 34.7938 35.0879 35.3989 35.7123 36.0257 36.3319 36.6212 36.8985 37.1733 37.4506 37.7255 37.9955 38.2631 38.5307 38.7959 39.0563 39.2853 39.4951 39.7048 39.917 40.1171 40.2883 40.4378 40.5872 40.7391 40.9031 41.108 41.3443 41.5805 41.8168 42.0651 42.3544 42.6703 42.9885 43.3044 43.6178 43.9119 44.1964 44.4809 44.7654 45.0475 45.3199 45.5875 45.8527 46.1203 46.3807 46.6146 46.8316 47.0485 47.2655 47.4705 47.6368 47.7718 47.9068 48.0418 48.1696 48.2878 48.3938 48.4999 48.606 48.7121 48.8109 48.9074 49.0038 49.1002 49.1943 49.2835 49.3654 49.4474 49.5294 49.6114 49.6789 49.7416 49.8042 49.8669 49.9248 49.9706 50.0092 50.0429 50.0791 50.1104 50.1369 50.1538 50.1731 50.1924 50.2069 50.2141 50.2165 50.2189 50.2213 50.2165 50.1924 50.1538 50.1152 50.0791 50.0333 49.9561 49.8573 49.7608 49.662 49.5607 49.4402 49.3076 49.1726 49.04 48.9098 48.7868 48.6735 48.5602 48.4469 48.3263 48.1696 47.9912 47.8152 47.6368 47.4512 47.2294 46.9859 46.7399 46.494 46.2674 46.1035 45.9781 45.8551 45.7322 45.614 45.52 45.438 45.3585 45.2789 45.1969 45.1053 45.0041 44.9028
25.1283 25.0873 25.0463 25.0029 24.962 24.9234 24.8824 24.8511 24.8294 24.8173 24.8101 24.8004 24.7835 24.7594 24.7281 24.6654 24.5714 24.5208 24.5183 24.5521 24.6582 24.786 24.6678 24.3448 24.2411 24.2073 24.176 24.1447 24.123 24.1133 24.1037 24.082 24.0193 23.918 23.8168 23.7155 23.6167 23.5299 23.4696 23.4093 23.3563 23.3177 23.3177 23.3298 23.3442 23.3563 23.3707 23.3852 23.3997 23.4117 23.4238 23.4262 23.4165 23.4069 23.3949 23.378 23.3539 23.3298 23.3056 23.2815 23.2695 23.2719 23.2743 23.2791 23.296 23.3611 23.5323 23.6938 23.7203 23.7227 23.7276 23.7324 23.7372 23.742 23.7468 23.7541 23.7565 23.7613 23.7685 23.783 23.7951 23.8095 23.8192 23.8336 23.8457 23.8602 23.8819 23.9084 23.9277 23.9301 23.9325 23.9373 23.9397 23.9445 23.9494 23.9518 23.9494 23.9445 23.947 23.959 23.9687 23.9807 23.9904 24 24.0121 24.0265 24.041 24.0554 24.0771 24.1157 24.1519 24.1905 24.229 24.2652 24.3014 24.3351 24.3665 24.3954 24.4243 24.4557 24.487 24.5183 24.5497 24.5786 24.61 24.6461 24.6847 24.7257 25.0271 25.7817 25.8395 25.8974 25.9625 26.0541 26.1674 26.2807 26.3916 26.5122 26.6568 26.8184 26.9799 27.1439 27.303 27.4452 27.5778 27.7104 27.8454 27.9732 28.0817 28.1757 28.2674 28.3614 28.453 28.5494 28.641 28.7327 28.8243 28.9159 29.0075 29.0991 29.1907 29.2824 29.3812 29.5066 29.6512 29.7959 29.9405 30.0948 30.2949 30.5264 30.7603 30.9893 31.2207 31.4546 31.6885 31.9223 32.1562 32.3852 32.6022 32.8096 33.0193 33.2242 33.4388 33.6799 33.9427 34.2055 34.4683 34.7383 35.0373 35.3555 35.6737 35.9944 36.3078 36.602 36.8816 37.1637 37.4434 37.7255 38.0003 38.2703 38.5403 38.8104 39.0756 39.3143 39.5385 39.7627 39.9845 40.2015 40.3871 40.5487 40.7126 40.8765 41.0501 41.2575 41.4841 41.7155 41.9422 42.1809 42.4605 42.7667 43.0729 43.3791 43.6829 43.977 44.2615 44.5484 44.8353 45.1198 45.397 45.6695 45.9419 46.2144 46.4796 46.7182 46.9352 47.1546 47.3716 47.5765 47.7332 47.861 47.9864 48.1142 48.2347 48.348 48.4565 48.5626 48.6687 48.7724 48.8736 48.9725 49.0713 49.1677 49.2642 49.3534 49.4378 49.5197 49.6017 49.6861 49.7536 49.8139 49.8766 49.9392 49.9947 50.0405 50.0743 50.1104 50.1442 50.1779 50.202 50.2213 50.2406 50.2599 50.2768 50.2864 50.2888 50.2912 50.2937 50.2937 50.2744 50.2406 50.2093 50.1779 50.1369 50.0694 49.9826 49.8983 49.8115 49.7199 49.6114 49.4884 49.3654 49.2425 49.1195 49.0086 48.905 48.8013 48.6976 48.5867 48.4445 48.2805 48.1166 47.955 47.7815 47.5717 47.333 47.0943 46.8533 46.629 46.4603 46.3253 46.1951 46.0601 45.9323 45.831 45.7515 45.6671 45.5875 45.5031 45.4067 45.303 45.1993
25.0705 25.0295 24.9885 24.9475 24.9065 24.8679 24.8342 24.8125 24.8052 24.7956 24.7811 24.7619 24.7353 24.7088 24.6558 24.5666 24.5135 24.5039 24.4991 24.5135 24.5569 24.6678 24.7329 24.5015 24.1953 24.1688 24.1398 24.1061 24.0892 24.0771 24.0603 24.0217 23.9325 23.824 23.7227 23.6215 23.5371 23.4792 23.4238 23.3659 23.3249 23.3273 23.3394 23.3539 23.3683 23.3804 23.3949 23.4069 23.419 23.431 23.4358 23.4262 23.4165 23.4069 23.3949 23.3732 23.349 23.3249 23.3008 23.2864 23.2912 23.2936 23.3056 23.3273 23.3635 23.4117 23.5347 23.7059 23.7493 23.7493 23.7517 23.7541 23.7589 23.7661 23.771 23.7758 23.7806 23.7854 23.7902 23.8047 23.8192 23.8312 23.8433 23.8553 23.8722 23.8939 23.9156 23.9397 23.959 23.9638 23.9687 23.9711 23.9735 23.9783 23.9807 23.9807 23.9759 23.9735 23.9759 23.9879 23.9976 24.0096 24.0193 24.0289 24.0434 24.0579 24.0723 24.0892 24.1085 24.1471 24.1832 24.2218 24.2604 24.2965 24.3303 24.3592 24.3906 24.4195 24.4484 24.4798 24.5111 24.54 24.5714 24.6027 24.6389 24.6799 24.7185 24.7594 25.0367 25.7937 25.854 25.9119 25.977 26.071 26.1867 26.3024 26.4158 26.5363 26.6834 26.8449 27.0088 27.1704 27.3319 27.479 27.614 27.7514 27.8864 28.019 28.1299 28.2288 28.3252 28.4217 28.5205 28.6169 28.7086 28.8002 28.8942 28.9858 29.0798 29.1715 29.2631 29.3571 29.4535 29.5741 29.7091 29.8441 29.9767 30.1214 30.3094 30.5288 30.7458 30.9652 31.1846 31.4136 31.6499 31.8886 32.1248 32.3563 32.5757 32.7782 32.9856 33.1929 33.4051 33.6461 33.9089 34.1717 34.4369 34.7045 35.0059 35.3266 35.6496 35.9703 36.2885 36.5875 36.872 37.1565 37.441 37.7279 38.0075 38.2824 38.5572 38.8321 39.0997 39.348 39.5746 39.8061 40.0351 40.2569 40.4474 40.6186 40.7897 40.9585 41.1345 41.3394 41.5661 41.7927 42.0193 42.2556 42.5304 42.8366 43.1404 43.4442 43.748 44.0445 44.3362 44.628 44.9197 45.2114 45.4911 45.7683 46.0456 46.3204 46.5905 46.8291 47.0437 47.2583 47.4705 47.673 47.8273 47.9478 48.0684 48.1889 48.307 48.4179 48.5216 48.6277 48.7314 48.835 48.9339 49.0327 49.1316 49.2304 49.3269 49.4161 49.5005 49.5824 49.6644 49.744 49.8139 49.8742 49.932 49.9923 50.0502 50.0935 50.1273 50.1635 50.1972 50.2334 50.2575 50.2768 50.2985 50.3178 50.3371 50.3467 50.3491 50.3539 50.3563 50.3588 50.3419 50.3154 50.2864 50.2575 50.2237 50.1659 50.0911 50.0164 49.9417 49.8621 49.7657 49.6548 49.5439 49.4354 49.3269 49.2256 49.134 49.04 48.9459 48.8471 48.7193 48.5698 48.4228 48.2757 48.119 47.9165 47.685 47.4512 47.2173 46.9955 46.8195 46.6748 46.5326 46.3879 46.2505 46.1444 46.0601 45.9781 45.8937 45.8069 45.7105 45.602 45.4959
25.0126 24.9716 24.9306 24.8896 24.8511 24.8173 24.7956 24.7884 24.7763 24.7619 24.7377 24.7136 24.6871 24.6437 24.5642 24.5087 24.4991 24.4894 24.4846 24.4966 24.5111 24.5569 24.6582 24.6365 24.3713 24.135 24.0988 24.0651 24.053 24.0362 23.9976 23.9421 23.8457 23.7276 23.6287 23.5419 23.4841 23.431 23.3756 23.3346 23.337 23.3515 23.3635 23.378 23.3924 23.4045 23.4165 23.431 23.4431 23.4455 23.4358 23.4262 23.4165 23.4069 23.3924 23.3659 23.3418 23.3201 23.3056 23.3081 23.3153 23.3322 23.3611 23.3973 23.431 23.4672 23.5492 23.7155 23.7806 23.7782 23.7782 23.7806 23.783 23.7878 23.7927 23.7975 23.8047 23.8095 23.8144 23.8288 23.8409 23.8529 23.8674 23.8794 23.9036 23.9253 23.9518 23.9735 23.9928 23.9976 24.0024 24.0048 24.0096 24.0121 24.0121 24.0096 24.0048 24.0024 24.0048 24.0169 24.0241 24.0386 24.0482 24.0603 24.0771 24.0916 24.1061 24.1205 24.1422 24.1784 24.2146 24.2556 24.2917 24.3255 24.3544 24.3833 24.4123 24.4412 24.4725 24.5039 24.5328 24.5642 24.5955 24.6317 24.6702 24.7112 24.7522 24.7908 25.0488 25.8106 25.8709 25.9287 25.9962 26.0927 26.2084 26.3265 26.4447 26.5676 26.7123 26.8762 27.0402 27.2041 27.3657 27.5127 27.6502 27.7852 27.9202 28.0552 28.1685 28.2649 28.3662 28.4626 28.5615 28.6555 28.7495 28.8412 28.9328 29.0244 29.1184 29.21 29.3016 29.3933 29.4897 29.6054 29.738 29.8706 30.0008 30.1431 30.3287 30.5457 30.7627 30.9821 31.2015 31.4329 31.6692 31.9079 32.1465 32.378 32.5974 32.7999 33.0048 33.2098 33.4195 33.6582 33.9186 34.1814 34.4442 34.7118 35.0059 35.3266 35.6424 35.9606 36.2741 36.573 36.8647 37.1541 37.4458 37.7351 38.0196 38.2993 38.5789 38.8586 39.131 39.3794 39.6084 39.8374 40.0665 40.2859 40.4787 40.6475 40.8163 40.9874 41.1634 41.3708 41.5974 41.8289 42.0555 42.2966 42.5738 42.8824 43.1935 43.5021 43.8107 44.1144 44.4158 44.7148 45.0137 45.3127 45.5996 45.8768 46.1541 46.4313 46.7038 46.94 47.1498 47.3595 47.5693 47.767 47.9189 48.0346 48.1503 48.2661 48.3794 48.4855 48.5891 48.6928 48.7941 48.8953 48.9966 49.0954 49.1943 49.2931 49.3896 49.4788 49.5607 49.6451 49.7271 49.8066 49.8742 49.9296 49.9899 50.0477 50.1008 50.1466 50.1803 50.2165 50.2527 50.2888 50.3129 50.3346 50.3563 50.3756 50.3949 50.407 50.4118 50.4166 50.4214 50.4238 50.4094 50.3853 50.3612 50.3371 50.3105 50.2623 50.1972 50.1345 50.0719 50.0043 49.92 49.8235 49.7247 49.6258 49.5318 49.4426 49.3606 49.2762 49.1943 49.1075 48.9918 48.8591 48.729 48.5964 48.4541 48.2636 48.0346 47.808 47.5789 47.3595 47.1787 47.0268 46.8725 46.7158 46.5712 46.4579 46.3735 46.2867 46.2023 46.1155 46.0142 45.9033 45.7924
